# .PCD v0.7 - Point Cloud Data file format
VERSION 0.7
FIELDS x y z rgb normal_x normal_y normal_z curvature
SIZE 4 4 4 4 4 4 4 4
TYPE F F F F F F F F
COUNT 1 1 1 1 1 1 1 1
WIDTH 662
HEIGHT 1
VIEWPOINT 0 0 0 1 0 0 0
POINTS 662
DATA ascii
22.232096 -215.48169 -29.738972 1.2806147e-38 0 -0.82544953 -0.56447589 0
22.31341 -215.3157 -29.958696 1.2897987e-38 0 -0.79791808 -0.60276586 0
22.379259 -215.18129 -30.182573 1.2620687e-38 0 -0.85734338 -0.51474494 0
22.442036 -215.05315 -30.407106 1.2805079e-38 0 -0.8685118 -0.4956685 0
22.513777 -214.90671 -30.628815 1.2805442e-38 0 -0.83441705 -0.55113345 0
22.549658 -214.83347 -30.860817 1.2990188e-38 0 -0.95360827 -0.30105034 0
22.649055 -214.63057 -31.07391 1.2990182e-38 0 -0.72422183 -0.68956715 0
22.750486 -214.42352 -31.286028 1.2990182e-38 0 -0.71560997 -0.6985001 0
22.826546 -214.26826 -31.505388 1.2897992e-38 0 -0.81623864 -0.5777148 0
22.885712 -214.14749 -31.729593 1.2713247e-38 0 -0.88039315 -0.47424451 0
22.910896 -214.09608 -31.963987 1.2067877e-38 0 -0.97678405 -0.21422641 0
22.954342 -214.0074 -32.192726 1.1331386e-38 0 -0.93237579 -0.36149046 0
23.027719 -213.85762 -32.412067 1.0686736e-38 0 -0.82582515 -0.56392634 0
23.094473 -213.72136 -32.633224 1.0964042e-38 0 -0.85137582 -0.52455616 0
23.171602 -213.56392 -32.850895 1.1609046e-38 0 -0.81026608 -0.58606231 0
23.217045 -213.47116 -33.078331 1.2160427e-38 0 -0.92595136 -0.37764266 0
23.31076 -213.27986 -33.290249 1.1515072e-38 0 -0.74229473 -0.67007351 0
23.359043 -213.1813 -33.516411 1.1145935e-38 0 -0.91673595 -0.39949381 0
23.465542 -212.96391 -33.723598 1.1330326e-38 0 -0.68991297 -0.72389227 0
23.545416 -212.80087 -33.93906 1.160691e-38 0 -0.79742765 -0.60341448 0
23.597599 -212.69435 -34.163326 1.1608347e-38 0 -0.90328491 -0.42904115 0
23.663328 -212.56018 -34.382957 1.1884576e-38 0 -0.85336572 -0.52131271 0
23.754608 -212.37386 -34.59388 1.1423601e-38 0 -0.7494548 -0.66205543 0
23.813446 -212.25375 -34.815338 1.1423245e-38 0 -0.87905043 -0.47672898 0
24.018379 -211.83543 -34.987377 1.1423964e-38 0 -0.38035232 -0.92484164 0
24.1647 -211.53676 -35.178467 1.0963342e-38 0 -0.53892821 -0.84235173 0
24.220098 -211.42368 -35.400021 1.0318692e-38 0 -0.8906883 -0.45461464 0
24.196522 -211.4718 -35.64856 1.0318692e-38 0 -0.98176372 0.1901053 0
24.285595 -211.28998 -35.858303 1.0962974e-38 0 -0.75560701 -0.65502524 0
24.419199 -211.01726 -36.292469 1.0964414e-38 0 -0.84679818 -0.53191429 0
24.493422 -210.86575 -36.506615 1.0504507e-38 0 -0.81635165 -0.5775553 0
24.419199 -211.01726 -36.77322 1.0412312e-38 0 -0.86942261 0.49406901 0
24.563194 -210.72333 -36.962261 1.087329e-38 0 -0.54093188 -0.84106636 0
24.579521 -210.69 -37.196674 1.0780375e-38 0 -0.99004531 -0.14074916 0
24.667706 -210.50999 -37.645298 1.0871146e-38 0 -0.92807776 -0.37238643 0
24.72649 -210.39 -37.864063 1.1147011e-38 0 -0.87676668 -0.48091602 0
24.824469 -210.19 -38.068195 1.068639e-38 0 -0.71430469 -0.69983488 0
24.755068 -210.33167 -38.334099 1.0593113e-38 0 -0.88256317 0.47019392 0
24.755068 -210.33167 -38.574497 1.059311e-38 0 -1 0 0
24.785694 -210.26915 -39.044014 1.0409801e-38 0 -0.99125195 -0.13198331 0
24.938787 -209.95665 -39.46677 1.0226851e-38 0 -0.80415064 -0.5944255 0
24.96862 -209.89575 -39.695751 1.0319047e-38 0 -0.96640682 -0.25701725 0
25.006819 -209.81778 -39.921455 1.0411244e-38 0 -0.94518775 -0.32652724 0
25.027241 -209.77609 -40.154007 1.0595279e-38 0 -0.98431015 -0.17644666 0
25.040846 -209.74832 -40.38924 1.0687475e-38 0 -0.99310327 -0.11724303 0
25.040846 -209.74832 -40.629875 1.050344e-38 0 -1 0 0
25.066359 -209.69624 -40.860493 1.0134656e-38 0 -0.97543794 -0.22027424 0
25.142904 -209.53999 -41.07074 9.9502617e-39 0 -0.80262238 -0.59648758 0
25.215803 -209.39119 -41.282211 1.0592397e-38 0 -0.81782389 -0.57546854 0
25.244972 -209.33165 -41.511089 1.08697e-38 0 -0.96779007 -0.25175866 0
25.299398 -209.22055 -41.729683 1.0778583e-38 0 -0.89146757 -0.45308453 0
25.295998 -209.22749 -41.971737 1.0594911e-38 0 -0.99958891 0.028670855 0
25.32033 -209.17783 -42.202522 1.0594908e-38 0 -0.97761691 -0.2103931 0
25.381058 -209.05386 -42.418285 1.0410517e-38 0 -0.8670823 -0.49816492 0
25.449089 -208.91499 -42.63084 1.0318318e-38 0 -0.8371644 -0.54695141 0
25.551157 -208.70665 -42.828999 1.0778936e-38 0 -0.68917334 -0.72459656 0
25.6495 -208.50591 -43.028358 1.0688197e-38 0 -0.70465535 -0.70954978 0
25.694044 -208.41498 -43.250072 1.0595998e-38 0 -0.9252162 -0.37944037 0
25.763683 -208.27283 -43.461037 1.0872221e-38 0 -0.8293041 -0.55879766 0
25.789301 -208.22054 -43.690559 1.0686751e-38 0 -0.97501552 -0.22213657 0
25.721254 -208.35944 -43.96022 1.0871495e-38 0 -0.88899535 0.45791623 0
25.789301 -208.22054 -44.171654 1.0410517e-38 0 -0.8357802 -0.54906416 0
25.857342 -208.08165 -44.623566 1.0779652e-38 0 -0.95587665 -0.29376832 0
25.857342 -208.08165 -44.864353 1.1149169e-38 0 -1 0 0
25.857342 -208.08165 -45.105251 1.050344e-38 0 -1 0 0
25.857342 -208.08165 -45.346275 1.0042106e-38 0 -1 0 0
25.93157 -207.93013 -45.554382 1.0411244e-38 0 -0.80842328 -0.58860159 0
25.993427 -207.80386 -45.767788 1.0134307e-38 0 -0.86063814 -0.50921696 0
25.952597 -207.88721 -46.027187 9.8584332e-39 0 -0.95206583 0.30589315 0
25.949869 -207.89278 -46.26968 9.2134267e-39 0 -0.99973631 0.022961475 0
25.948059 -207.89647 -46.511887 9.1212311e-39 0 -0.99988377 0.015244003 0
25.917501 -207.95885 -46.767353 7.2798548e-39 0 -0.97145993 0.23720397 0
25.755274 -208.28999 -47.083546 8.015622e-39 0 -0.6905883 0.72324812 0
25.812437 -208.17331 -47.299366 4.2374102e-39 0 -0.87966502 -0.47559378 0
25.741587 -208.31793 -47.574432 4.9746138e-39 0 -0.88511568 0.46537098 0
25.663778 -208.47676 -47.853207 3.22361e-39 0 -0.86887461 0.49503228 0
25.567026 -208.67426 -48.141357 1.7495562e-39 0 -0.82485515 0.56534415 0
25.517128 -208.77611 -48.40802 2.3952913e-39 0 -0.93417662 0.35681099 0
27.512503 -204.70305 -58.831566 3.6856812e-39 0 -0.93141615 -0.36395609 0
27.505407 -204.71753 -59.080921 4.4232434e-39 0 -0.99831808 0.057974443 0
27.512503 -204.70305 -59.322136 4.2388522e-39 0 -0.99820292 -0.059924062 0
27.512503 -204.70305 -59.567669 3.043546e-39 0 -1 0 0
27.40601 -204.92043 -59.876289 3.2272128e-39 0 -0.81755781 0.57584655 0
27.374054 -204.98566 -60.141361 3.8722193e-39 0 -0.97102952 0.23895986 0
27.375572 -204.98256 -60.386791 4.5168726e-39 0 -0.99992037 -0.012619841 0
27.40601 -204.92043 -60.61507 3.9633443e-39 0 -0.96489686 -0.26262894 0
21.523689 -217.22939 -25.098503 1.6496856e-38 0 -1 0 0
21.544098 -217.18773 -25.33712 1.6680168e-38 0 -0.98510152 -0.17197385 0
21.556349 -217.16272 -25.577679 1.4835893e-38 0 -0.99463928 -0.10340551 0
21.601822 -217.0699 -25.810139 1.5109966e-38 0 -0.92870355 -0.37082306 0
21.640968 -216.98999 -26.044014 1.3634836e-38 0 -0.94628745 -0.32332659 0
21.688347 -216.89328 -26.275728 1.2989466e-38 0 -0.92284685 -0.38516712 0
21.672148 -216.92635 -26.523235 1.2068229e-38 0 -0.99119383 0.13241889 0
21.783484 -216.69908 -26.738605 1.1054074e-38 0 -0.68785751 -0.72584575 0
21.839151 -216.58545 -26.967747 1.142286e-38 0 -0.89588994 -0.44427598 0
21.894827 -216.4718 -27.196707 1.1330667e-38 0 -0.8957262 -0.44460601 0
21.820606 -216.62331 -27.459236 1.050127e-38 0 -0.86612099 0.49983454 0
21.820606 -216.62331 -27.946257 9.6722356e-39 0 -1 0 0
22.041401 -216.17261 -28.13096 9.9495414e-39 0 -0.37920791 -0.92531151 0
22.063446 -216.12761 -28.368204 1.0134653e-38 0 -0.98248374 -0.18634838 0
22.075487 -216.10303 -28.60813 1.0595987e-38 0 -0.99479228 -0.10192291 0
22.101046 -216.05086 -28.844372 1.1608693e-38 0 -0.97647369 -0.2156364 0
22.137547 -215.97635 -29.077553 1.2161868e-38 0 -0.95255357 -0.30437085 0
22.186241 -215.87695 -29.307255 1.1793804e-38 0 -0.91776216 -0.39713046 0
22.290371 -215.6644 -29.521246 1.17938e-38 0 -0.70948374 -0.70472193 0
22.37084 -215.50014 -29.741528 1.2623552e-38 0 -0.80165708 -0.59778428 0
22.441841 -215.35521 -29.964212 1.2899057e-38 0 -0.83812904 -0.54547197 0
22.52317 -215.18919 -30.183685 1.2437009e-38 0 -0.7975322 -0.60327637 0
22.600069 -215.03223 -30.40414 1.2896919e-38 0 -0.8146078 -0.58001214 0
22.676128 -214.87697 -30.624565 1.2619609e-38 0 -0.817554 -0.57585186 0
22.773165 -214.67889 -30.838552 1.2804e-38 0 -0.73386681 -0.67929333 0
22.829288 -214.56433 -31.064291 1.2712882e-38 0 -0.8917349 -0.45255816 0
22.891497 -214.43735 -31.288048 1.2989469e-38 0 -0.86970842 -0.49356601 0
22.974329 -214.26826 -31.505388 1.3081665e-38 0 -0.78928173 -0.61403126 0
23.031134 -214.15231 -31.73031 1.2436295e-38 0 -0.88884181 -0.45821434 0
23.09379 -214.02441 -31.953264 1.215863e-38 0 -0.86740905 -0.49759591 0
23.144728 -213.92044 -32.179619 1.1973878e-38 0 -0.90871853 -0.41740945 0
23.222836 -213.761 -32.397396 1.1329963e-38 0 -0.80687159 -0.59072685 0
23.317486 -213.56779 -32.609741 1.1607265e-38 0 -0.73965257 -0.67298883 0
23.386551 -213.42682 -32.829781 1.2344827e-38 0 -0.84200931 -0.53946286 0
23.464226 -213.26826 -33.046852 1.1793088e-38 0 -0.80752426 -0.58983439 0
23.525082 -213.14404 -33.269024 1.1515422e-38 0 -0.8728314 -0.48802188 0
23.56008 -213.0726 -33.499302 1.1053723e-38 0 -0.95509225 -0.29630864 0
23.684319 -212.819 -33.700634 1.0870405e-38 0 -0.6217742 -0.78319657 0
23.719826 -212.74652 -33.930389 1.1238468e-38 0 -0.95367211 -0.30084795 0
23.719826 -212.74652 -34.171711 1.1423213e-38 0 -1 0 0
23.762426 -212.65956 -34.399036 1.1055869e-38 0 -0.93399531 -0.35728547 0
23.861832 -212.45665 -34.607368 1.0963674e-38 0 -0.7163651 -0.69772565 0
23.932823 -212.31174 -34.824852 1.1515771e-38 0 -0.83218503 -0.55449808 0
24.195847 -211.77484 -34.977375 1.169873e-38 0 -0.27327016 -0.96193725 0
24.255222 -211.65364 -35.197887 1.1146284e-38 0 -0.87635225 -0.4816708 0
24.28863 -211.58545 -35.427086 1.0686751e-38 0 -0.95847762 -0.28516793 0
24.443649 -211.26901 -35.61441 1.0319409e-38 0 -0.50941277 -0.86052233 0
24.529861 -211.09303 -35.824924 1.0781076e-38 0 -0.76723242 -0.64136928 0
24.56436 -211.02261 -36.053146 1.1056591e-38 0 -0.95554668 -0.29483998 0
24.566982 -211.01726 -36.292469 1.133211e-38 0 -0.99974972 -0.022373537 0
24.566982 -211.01726 -36.532799 1.1330681e-38 0 -1 0 0
24.641205 -210.86575 -36.746861 1.0869345e-38 0 -0.8162449 -0.57770616 0
24.710978 -210.72333 -36.962261 1.0686033e-38 0 -0.83414435 -0.55154628 0
24.776297 -210.59 -37.179054 1.0779671e-38 0 -0.85179824 -0.52386993 0
24.776297 -210.59 -37.419273 1.0871869e-38 0 -1 0 0
24.800554 -210.54048 -37.650742 1.1055167e-38 0 -0.97787642 -0.2091835 0
24.839334 -210.46132 -37.876873 1.0963342e-38 0 -0.94383681 -0.33041212 0
24.841608 -210.45668 -38.11639 1.0870436e-38 0 -0.99981254 -0.019363128 0
24.984503 -210.16499 -38.303795 1.0686755e-38 0 -0.54053622 -0.84132075 0
25.035538 -210.06082 -38.524948 1.0410517e-38 0 -0.90466166 -0.42613068 0
24.984503 -210.16499 -38.784313 1.0226479e-38 0 -0.9279505 0.37270334 0
25.035538 -210.06082 -39.005424 1.0318321e-38 0 -0.90463048 -0.42619687 0
25.086571 -209.95665 -39.226406 1.0502363e-38 0 -0.90453398 -0.42640153 0
25.12059 -209.88721 -39.453751 1.0042473e-38 0 -0.95637935 -0.29212761 0
25.09128 -209.94704 -39.705425 1.0227216e-38 0 -0.9728871 0.23128095 0
25.110117 -209.90858 -39.938683 1.0596347e-38 0 -0.98668331 -0.1626534 0
25.188629 -209.74832 -40.148708 1.0689259e-38 0 -0.79498738 -0.60662603 0
25.137596 -209.85249 -40.409241 1.0597066e-38 0 -0.9285273 0.3712641 0
25.158003 -209.81084 -40.641945 1.022793e-38 0 -0.98435271 -0.17620949 0
25.256668 -209.60944 -41.084309 9.9527756e-39 0 -0.91011339 -0.4143593 0
25.297491 -209.52611 -41.308727 1.0043179e-38 0 -0.93746239 -0.34808651 0
25.351925 -209.41499 -41.527561 9.9509805e-39 0 -0.8916434 -0.45273837 0
25.392756 -209.33165 -41.751766 9.9506176e-39 0 -0.93733335 -0.34843397 0
25.502663 -209.1073 -41.947708 1.0227202e-38 0 -0.65781164 -0.75318247 0
25.562853 -208.98444 -42.163647 1.0871848e-38 0 -0.86916006 -0.49453086 0
25.588718 -208.93164 -42.393578 1.0687457e-38 0 -0.97463721 -0.22379062 0
25.648445 -208.80972 -42.609444 1.0410154e-38 0 -0.87072444 -0.49177128 0
25.69894 -208.70665 -42.828999 1.0594545e-38 0 -0.90521044 -0.42496368 0
25.742678 -208.61737 -43.051262 1.0227202e-38 0 -0.92793757 -0.3727358 0
25.800999 -208.49832 -43.267292 1.0687827e-38 0 -0.87581754 -0.48264226 0
25.841827 -208.41498 -43.490562 1.114773e-38 0 -0.93685639 -0.34971446 0
25.937084 -208.22054 -43.690559 1.0686399e-38 0 -0.71699262 -0.69708067 0
25.975956 -208.14119 -43.914394 1.0409812e-38 0 -0.94253331 -0.33411205 0
25.95409 -208.18582 -44.164326 1.0502363e-38 0 -0.98442662 0.17579584 0
25.903057 -208.28999 -44.427116 1.0778586e-38 0 -0.92962438 0.36850849 0
26.079958 -207.92889 -44.831581 1.0409798e-38 0 -0.74596512 -0.66598505 0
26.107183 -207.87332 -45.060318 1.0502715e-38 0 -0.97173214 -0.23608609 0
26.110786 -207.86597 -45.299511 1.0317972e-38 0 -0.99952763 -0.030733606 0
26.125198 -207.83655 -45.533985 1.0318695e-38 0 -0.99222064 -0.12449168 0
26.142637 -207.80095 -45.767151 9.4892989e-39 0 -0.98854488 -0.15092683 0
26.136471 -207.81354 -46.010963 8.935772e-39 0 -0.99866974 0.051563196 0
26.115032 -207.8573 -46.261826 8.2911243e-39 0 -0.98512274 0.17185195 0
26.121759 -207.84357 -46.500114 6.3546587e-39 0 -0.99834341 -0.057535879 0
26.039145 -208.01221 -46.779293 6.1731429e-39 0 -0.85595661 0.51704764 0
25.956871 -208.18015 -47.05883 4.79057e-39 0 -0.85720068 0.51498252 0
25.821405 -208.45667 -47.363441 4.8824041e-39 0 -0.7404232 0.67214096 0
25.811203 -208.47749 -47.610706 3.5920296e-39 0 -0.99647105 0.083937302 0
25.736847 -208.62927 -47.888062 2.4860478e-39 0 -0.87723726 0.48005715 0
25.649364 -208.80785 -48.17205 2.7637137e-39 0 -0.84654754 0.53231317 0
27.656025 -204.71175 -58.834042 3.8704242e-39 0 -0.93348241 -0.35862318 0
27.634586 -204.75551 -59.091778 4.5157908e-39 0 -0.98588926 0.16739863 0
27.60704 -204.81174 -59.353348 4.2392039e-39 0 -0.97766596 0.21016489 0
27.572041 -204.88318 -59.619606 3.5938373e-39 0 -0.96583688 0.25915059 0
27.50054 -205.02913 -59.907772 3.3172504e-39 0 -0.89210296 0.45183223 0
27.492258 -205.04604 -60.158916 3.6860301e-39 0 -0.99774182 0.067166775 0
27.474684 -205.08191 -60.415802 4.6083424e-39 0 -0.99038959 0.1383054 0
27.553793 -204.92043 -60.61507 4.4235952e-39 0 -0.77691811 -0.6296016 0
21.560131 -217.45667 -25.124907 1.6865636e-38 0 -1 0 0
21.597244 -217.38091 -25.359776 1.5851484e-38 0 -0.95171368 -0.30698696 0
21.632872 -217.30818 -25.594902 1.5481981e-38 0 -0.95534772 -0.29548404 0
21.684204 -217.2034 -25.826096 1.4836256e-38 0 -0.91081983 -0.41280398 0
21.716011 -217.13847 -26.061928 1.2161868e-38 0 -0.96412981 -0.26543123 0
21.765497 -217.03746 -26.293283 1.2438455e-38 0 -0.91645521 -0.40013742 0
21.819931 -216.92635 -26.523235 1.2161871e-38 0 -0.90039331 -0.43507695 0
21.864468 -216.83543 -26.75551 1.1239914e-38 0 -0.93121332 -0.36447459 0
21.857046 -216.85059 -27.000917 1.1238835e-38 0 -0.99809939 0.061624862 0
21.899094 -216.76476 -27.233686 1.1054088e-38 0 -0.93824673 -0.34596685 0
21.912878 -216.73662 -27.473669 1.0594195e-38 0 -0.99319667 -0.11644919 0
21.931267 -216.69908 -27.71245 1.0132859e-38 0 -0.98786831 -0.15529394 0
21.920868 -216.72031 -27.95883 9.5796883e-39 0 -0.99630982 0.085829467 0
22.051311 -216.45404 -28.167746 1.0039585e-38 0 -0.61728579 -0.78673899 0
22.092627 -216.36971 -28.400116 1.0961181e-38 0 -0.940005 -0.34116066 0
22.136999 -216.27913 -28.631542 1.0868984e-38 0 -0.93121809 -0.36446244 0
22.206228 -216.13782 -28.856028 1.188491e-38 0 -0.84628558 -0.53272957 0
22.216873 -216.11609 -29.096443 1.2161495e-38 0 -0.99594069 -0.090012111 0
22.315769 -215.91422 -29.312332 1.2529559e-38 0 -0.73041803 -0.68300039 0
22.380886 -215.7813 -29.537308 1.3082733e-38 0 -0.86096132 -0.50867027 0
22.473436 -215.59238 -29.754303 1.3451515e-38 0 -0.75421369 -0.65662891 0
22.576841 -215.3813 -29.967855 1.3266772e-38 0 -0.71122056 -0.70296896 0
22.650473 -215.231 -30.189568 1.2253342e-38 0 -0.82773316 -0.56112194 0
22.717413 -215.09436 -30.412952 1.3083827e-38 0 -0.85306168 -0.52181 0
22.772182 -214.98256 -30.639658 1.2437023e-38 0 -0.89686918 -0.44229618 0
22.802614 -214.92044 -30.873346 1.2530303e-38 0 -0.96643889 -0.25689667 0
22.924326 -214.672 -31.079922 1.3451902e-38 0 -0.63934207 -0.76892245 0
22.981123 -214.55606 -31.305414 1.3452975e-38 0 -0.88933796 -0.45725042 0
23.058222 -214.39868 -31.524607 1.3360411e-38 0 -0.81230581 -0.58323163 0
23.14341 -214.22479 -31.741072 1.2990907e-38 0 -0.77960724 -0.62626868 0
23.242807 -214.0219 -31.952888 1.216007e-38 0 -0.72214991 -0.69173652 0
23.289469 -213.92665 -32.180553 1.1238119e-38 0 -0.92252219 -0.38594416 0
23.363144 -213.77626 -32.399715 1.0684227e-38 0 -0.82453907 -0.56580496 0
23.451075 -213.59677 -32.614174 1.1053009e-38 0 -0.76685882 -0.64181578 0
23.533541 -213.42844 -32.830029 1.1606186e-38 0 -0.78855842 -0.6149599 0
23.595787 -213.30138 -33.051991 1.1145568e-38 0 -0.86786479 -0.4968006 0
23.65461 -213.1813 -33.274849 1.1237766e-38 0 -0.8803544 -0.47431636 0
23.685041 -213.11919 -33.506634 1.0961181e-38 0 -0.9659133 -0.25886559 0
23.725609 -213.03638 -33.735081 1.0776434e-38 0 -0.94013947 -0.34078997 0
23.814362 -212.85521 -33.947731 1.0592761e-38 0 -0.76120597 -0.6485101 0
23.867609 -212.74652 -34.171711 1.0410165e-38 0 -0.89966899 -0.43657276 0
23.867609 -212.74652 -34.413113 1.0870782e-38 0 -1 0 0
24.009615 -212.45665 -34.607368 1.1331757e-38 0 -0.55669916 -0.83071417 0
24.080606 -212.31174 -34.824852 1.1423227e-38 0 -0.83218503 -0.55449808 0
24.269402 -211.92636 -35.002388 1.1331028e-38 0 -0.41841725 -0.90825492 0
24.380745 -211.69908 -35.205441 1.0962246e-38 0 -0.6662426 -0.74573511 0
24.473751 -211.50923 -35.414333 1.0595261e-38 0 -0.74003303 -0.67257059 0
24.492088 -211.4718 -35.64856 1.0319397e-38 0 -0.9874711 -0.15779981 0
24.547756 -211.35817 -35.869865 1.0871847e-38 0 -0.88958549 -0.4567686 0
24.659092 -211.13091 -36.071621 1.078109e-38 0 -0.66389078 -0.74782956 0
24.714766 -211.01726 -36.292469 1.0688896e-38 0 -0.88917571 -0.45756593 0
24.766151 -210.91237 -36.514671 1.0780373e-38 0 -0.90431142 -0.42687339 0
24.770433 -210.90363 -36.753448 1.1056239e-38 0 -0.99933028 -0.036592405 0
24.714766 -211.01726 -37.013737 1.1055883e-38 0 -0.91647238 0.40009788 0
24.826101 -210.78999 -37.214298 1.0963325e-38 0 -0.66168493 -0.74978203 0
24.92408 -210.59 -37.419273 1.0685659e-38 0 -0.71574491 -0.69836181 0
24.973064 -210.49001 -37.882023 1.0409449e-38 0 -0.97744173 -0.21120547 0
25.002464 -210.42999 -38.111565 1.0593113e-38 0 -0.96748084 -0.25294414 0
24.996201 -210.44278 -38.354305 1.0777138e-38 0 -0.99861544 0.052604135 0
25.009821 -210.41498 -38.589745 1.0501268e-38 0 -0.99310023 -0.11726882 0
25.030228 -210.37332 -38.82267 1.0133567e-38 0 -0.98438174 -0.17604731 0
25.020023 -210.39415 -39.067169 9.8587821e-39 0 -0.99639112 0.08487995 0
25.081261 -210.26915 -39.284645 9.8591478e-39 0 -0.86699003 -0.49832538 0
25.127756 -210.17424 -39.507565 1.0227199e-38 0 -0.92007977 -0.39173099 0
25.198233 -210.03038 -39.721142 1.03194e-38 0 -0.82939714 -0.55865943 0
25.200327 -210.02611 -39.960979 1.0411243e-38 0 -0.99984139 -0.017811146 0
25.234354 -209.95665 -40.188469 1.050344e-38 0 -0.95641345 -0.29201603 0
25.234354 -209.95665 -40.429237 1.0319409e-38 0 -1 0 0
25.346617 -209.72749 -41.107376 1.0227918e-38 0 -0.94737172 -0.32013565 0
25.132286 -210.16499 -41.434326 1.0318673e-38 0 -0.59862238 0.80103141 0
25.482216 -209.4507 -41.534615 9.9488225e-39 0 -0.13903831 -0.99028701 0
25.514561 -209.38467 -41.76231 9.5796883e-39 0 -0.96043688 -0.27849758 0
25.540539 -209.33165 -41.992554 1.0409446e-38 0 -0.97449207 -0.22442201 0
25.62219 -209.16498 -42.19994 1.0962972e-38 0 -0.77946806 -0.62644202 0
25.678717 -209.04959 -42.417419 1.1238833e-38 0 -0.88336658 -0.46868277 0
25.642597 -209.12332 -42.673187 1.0685662e-38 0 -0.96087229 0.2769917 0
25.744656 -208.91499 -42.871582 1.114664e-38 0 -0.68963128 -0.72416061 0
25.907951 -208.58167 -43.043922 1.0964044e-38 0 -0.45927408 -0.88829452 0
25.948782 -208.49832 -43.267292 1.0871492e-38 0 -0.93690723 -0.34957817 0
26.042095 -208.30785 -43.468311 1.1055883e-38 0 -0.72588748 -0.6878134 0
26.061045 -208.26917 -43.700714 1.1333552e-38 0 -0.98643023 -0.16418107 0
26.071249 -208.24834 -43.93689 1.0964414e-38 0 -0.9961338 -0.08784873 0
26.152908 -208.08165 -44.142334 1.0411243e-38 0 -0.77655131 -0.630054 0
26.193729 -207.99832 -44.605785 1.0319048e-38 0 -0.98421776 -0.17696169 0
26.152908 -208.08165 -44.864353 1.0685684e-38 0 -0.95179534 0.30673361 0
26.234558 -207.91498 -45.069302 1.0501291e-38 0 -0.7758339 -0.63093722 0
26.254967 -207.87332 -45.301105 1.0409815e-38 0 -0.98423374 -0.17687248 0
26.243305 -207.89713 -45.547184 9.6740391e-39 0 -0.995354 0.096282773 0
26.234558 -207.91498 -45.792137 8.8449959e-39 0 -0.99735463 0.072689638 0
26.22094 -207.94278 -46.039425 8.0166814e-39 0 -0.99373949 0.11172192 0
26.152908 -208.08165 -46.311504 6.6341211e-39 0 -0.89069003 0.45461106 0
27.77257 -204.77551 -58.852203 2.5829224e-39 0 -0.96696144 -0.25492257 0
27.701576 -204.92043 -59.138943 3.4112411e-39 0 -0.89249778 0.45105174 0
27.701576 -204.92043 -59.38456 3.3183266e-39 0 -1 0 0
27.701576 -204.92043 -59.630352 2.8573457e-39 0 -1 0 0
27.595078 -205.13782 -59.939251 3.1339382e-39 0 -0.81778318 0.57552642 0
27.488579 -205.35521 -60.248848 3.6867546e-39 0 -0.81839401 0.57465762 0
27.552469 -205.22479 -60.457527 4.5165153e-39 0 -0.84801221 -0.52997667 0
27.56768 -205.19374 -60.695206 4.332124e-39 0 -0.99157357 -0.12954465 0
27.488579 -205.35521 -60.989666 3.0413852e-39 0 -0.87682462 0.48081034 0
21.700491 -217.47182 -24.88294 1.7602481e-38 0 -1 0 0
21.694937 -217.48315 -25.127983 1.6034791e-38 0 -0.99893141 0.046217091 0
21.745028 -217.38091 -25.359776 1.5388342e-38 0 -0.91493565 -0.4035998 0
21.796688 -217.27545 -25.591026 1.6771277e-38 0 -0.90986258 -0.41490969 0
21.869513 -217.1268 -25.816938 1.3082378e-38 0 -0.83537507 -0.54968035 0
21.907681 -217.04889 -26.051117 1.1699444e-38 0 -0.94886321 -0.31568751 0
21.965591 -216.93068 -26.280281 1.2437728e-38 0 -0.88872874 -0.45843336 0
22.012251 -216.83543 -26.512064 1.2346611e-38 0 -0.92495131 -0.3800855 0
22.031328 -216.79649 -26.750683 1.1333178e-38 0 -0.98694456 -0.16106039 0
22.031328 -216.79649 -26.99415 1.1515055e-38 0 -1 0 0
22.080112 -216.69691 -27.225122 1.123919e-38 0 -0.91829258 -0.39590257 0
22.081076 -216.69495 -27.468359 1.0687101e-38 0 -0.99996728 -0.0080922022 0
22.060497 -216.73695 -27.717318 1.0042457e-38 0 -0.98606157 0.16638079 0
22.106888 -216.64226 -27.948713 1.0226849e-38 0 -0.92549902 -0.37874988 0
22.243244 -216.36392 -28.155964 1.041052e-38 0 -0.59722799 -0.80207151 0
22.278826 -216.29129 -28.389778 1.059311e-38 0 -0.95498461 -0.29665551 0
22.354012 -216.13782 -28.612753 1.0684946e-38 0 -0.82373536 -0.5669747 0
22.399109 -216.04576 -28.843687 1.2252985e-38 0 -0.92891628 -0.37028986 0
22.429943 -215.98282 -29.078426 1.1699446e-38 0 -0.96588027 -0.25898913 0
22.515894 -215.80737 -29.297771 1.2161497e-38 0 -0.78092182 -0.62462878 0
22.599459 -215.6368 -29.517452 1.3175647e-38 0 -0.78984821 -0.61330229 0
22.686283 -215.45956 -29.735905 1.3913934e-38 0 -0.77656925 -0.63003188 0
22.737408 -215.35521 -29.964212 1.3084539e-38 0 -0.90949613 -0.41571236 0
22.843906 -215.13782 -30.176455 1.2347698e-38 0 -0.6985808 -0.71553117 0
22.885386 -215.05315 -30.407106 1.2347698e-38 0 -0.93874639 -0.3446086 0
22.948162 -214.925 -30.631432 1.2622493e-38 0 -0.86831397 -0.49601489 0
23.011934 -214.79483 -30.855251 1.2715045e-38 0 -0.86443174 -0.50275028 0
23.072109 -214.672 -31.079922 1.2991631e-38 0 -0.87742603 -0.47971198 0
23.139738 -214.53395 -31.302179 1.3360414e-38 0 -0.84948045 -0.5276202 0
23.25807 -214.2924 -31.508944 1.3452607e-38 0 -0.65029132 -0.75968498 0
23.33828 -214.12868 -31.726801 1.3083827e-38 0 -0.79941177 -0.60078359 0
23.406834 -213.98874 -31.947927 1.2161515e-38 0 -0.84500635 -0.53475618 0
23.504192 -213.79001 -32.159962 1.2345906e-38 0 -0.72962582 -0.68384659 0
23.579565 -213.63615 -32.378448 1.1700902e-38 0 -0.81762254 -0.5757547 0
23.642647 -213.50739 -32.600506 1.1424671e-38 0 -0.86507243 -0.50164717 0
23.731401 -213.32622 -32.814285 1.1055889e-38 0 -0.76289815 -0.64651877 0
23.804905 -213.17618 -33.03257 1.0963691e-38 0 -0.82409656 -0.56644934 0
23.802393 -213.1813 -33.274849 1.0963688e-38 0 -0.99977618 0.021156618 0
23.844994 -213.09435 -33.502724 1.0962972e-38 0 -0.93428248 -0.3565338 0
23.873392 -213.03638 -33.735081 1.0594545e-38 0 -0.97026139 -0.24205959 0
23.962145 -212.85521 -33.947731 1.0502347e-38 0 -0.76120597 -0.6485101 0
24.050249 -212.67537 -34.160275 1.0687104e-38 0 -0.76339412 -0.64593309 0
24.143188 -212.48566 -34.370899 1.1055889e-38 0 -0.74303043 -0.66925764 0
24.22839 -212.31174 -34.583759 1.1423598e-38 0 -0.77438259 -0.63271773 0
24.294651 -212.17648 -34.802666 1.1790588e-38 0 -0.85071629 -0.52562511 0
24.538065 -211.67961 -34.961655 1.1514004e-38 0 -0.30475822 -0.95242977 0
24.590385 -211.57281 -35.18446 1.1422169e-38 0 -0.90175998 -0.43223709 0
24.656271 -211.43832 -35.40247 1.1147014e-38 0 -0.85108107 -0.52503437 0
24.63987 -211.4718 -35.64856 1.0778229e-38 0 -0.99087316 0.13479722 0
24.751207 -211.24454 -35.850601 1.1422871e-38 0 -0.66441679 -0.74736226 0
24.835825 -211.07181 -36.061539 1.0594192e-38 0 -0.77369785 -0.6335547 0
24.923786 -210.89226 -36.271004 1.0871495e-38 0 -0.75924098 -0.65080959 0
24.953747 -210.8311 -36.500622 1.1056965e-38 0 -0.96631271 -0.25737089 0
24.936771 -210.86575 -36.746861 1.0688543e-38 0 -0.99024248 0.13935496 0
24.993471 -210.75002 -36.966938 1.0872218e-38 0 -0.88507122 -0.46545556 0
25.071863 -210.59 -37.179054 1.1147729e-38 0 -0.79831368 -0.60224193 0
25.090147 -210.55267 -37.412655 1.077715e-38 0 -0.98747563 -0.15777163 0
25.104523 -210.52333 -37.647682 9.8594982e-39 0 -0.99229646 -0.12388606 0
25.16984 -210.39 -37.864063 1.0135009e-38 0 -0.85135317 -0.52459311 0
25.202507 -210.32332 -38.092289 1.0318321e-38 0 -0.95986974 -0.28044599 0
25.205236 -210.31775 -38.331566 1.0594192e-38 0 -0.99972922 -0.023269903 0
25.231817 -210.26349 -38.562027 1.0594192e-38 0 -0.97338504 -0.22917582 0
25.239248 -210.24832 -38.799652 1.0317968e-38 0 -0.99796915 -0.063698798 0
25.239248 -210.24832 -39.04015 9.8587877e-39 0 -1 0 0
25.249451 -210.22749 -39.276878 9.5825609e-39 0 -0.99615175 -0.087645046 0
25.280069 -210.16499 -39.505833 1.0135735e-38 0 -0.96470183 -0.26334453 0
25.280069 -210.16499 -39.746536 1.0135375e-38 0 -1 0 0
25.341307 -210.03999 -39.963619 1.0134657e-38 0 -0.86660028 -0.4990029 0
25.280069 -210.16499 -40.469254 1.0317253e-38 0 -0.97077549 0.23998952 0
25.34811 -210.02611 -40.683525 1.040837e-38 0 -0.83914268 -0.54391146 0
25.48048 -209.75591 -40.872082 1.0225055e-38 0 -0.5722698 -0.82006544 0
25.484196 -209.74832 -41.11145 1.0409803e-38 0 -0.99949849 -0.031665891 0
25.560009 -209.59357 -41.32198 1.059311e-38 0 -0.80573565 -0.59227532 0
25.598507 -209.51498 -41.547321 1.0133217e-38 0 -0.94423258 -0.32927936 0
25.688322 -209.33165 -41.751766 9.2127008e-39 0 -0.74449891 -0.66762358 0
25.766834 -209.17139 -41.960522 9.7662347e-39 0 -0.79320776 -0.60895121 0
25.824408 -209.05386 -42.177608 1.1057331e-38 0 -0.879403 -0.47607803 0
25.892439 -208.91499 -42.390213 1.1701253e-38 0 -0.83722281 -0.54686201 0
25.93327 -208.83165 -42.613899 1.1424657e-38 0 -0.93706924 -0.34914371 0
25.990902 -208.714 -42.830502 1.1423932e-38 0 -0.87874937 -0.47728345 0
26.062538 -208.56778 -43.041073 1.1331736e-38 0 -0.8213793 -0.57038248 0
26.096565 -208.49832 -43.267292 1.0871484e-38 0 -0.95595449 -0.29351488 0
26.164604 -208.35944 -43.479027 1.1148079e-38 0 -0.83616638 -0.54847574 0
26.232651 -208.22054 -43.690559 1.1425748e-38 0 -0.83589834 -0.54888427 0
26.30069 -208.08165 -44.142334 1.114773e-38 0 -0.95585161 -0.29384992 0
26.30069 -208.08165 -44.382893 1.059384e-38 0 -1 0 0
26.30069 -208.08165 -44.623566 1.0870427e-38 0 -1 0 0
26.30069 -208.08165 -44.864353 1.0042813e-38 0 -1 0 0
26.436777 -207.80386 -45.045341 1.0411243e-38 0 -0.54589397 -0.83785433 0
26.405201 -207.86832 -45.300022 1.0134657e-38 0 -0.96943724 0.24533966 0
26.398041 -207.88293 -45.544098 1.0135017e-38 0 -0.99821132 0.059783783 0
26.388868 -207.90166 -45.789215 8.6602529e-39 0 -0.99709558 0.076160133 0
26.382343 -207.91498 -46.033306 7.0943706e-39 0 -0.99851418 0.0544925 0
26.368723 -207.94278 -46.28075 5.4355779e-39 0 -0.99374735 0.11165219 0
27.955853 -204.70305 -58.831566 2.7669591e-39 0 -0.96826226 -0.24993667 0
27.951591 -204.71175 -59.079266 3.781111e-39 0 -0.99938411 0.03509149 0
27.920353 -204.77551 -59.342945 3.5034451e-39 0 -0.97198147 0.23505747 0
27.77836 -205.06535 -60.164536 2.3963703e-39 0 -0.94303799 0.33268499 0
27.732208 -205.15956 -60.438477 4.2395598e-39 0 -0.9456436 0.32520491 0
27.732208 -205.15956 -60.685181 4.6083424e-39 0 -1 0 0
27.707354 -205.2103 -60.946987 3.1339354e-39 0 -0.98173553 0.19025052 0
21.762175 -217.64757 -24.903164 1.6957832e-38 0 -1 0 0
21.800365 -217.56961 -25.138027 1.6032993e-38 0 -0.94908333 -0.31502512 0
21.858971 -217.44998 -25.36788 1.6678727e-38 0 -0.88705009 -0.46167326 0
21.919535 -217.32635 -25.597054 1.5848614e-38 0 -0.88010937 -0.47477108 0
21.968176 -217.22707 -25.828924 1.3359332e-38 0 -0.91926581 -0.39363727 0
22.029039 -217.10283 -26.057625 1.2253336e-38 0 -0.87871599 -0.47734493 0
22.090755 -216.97685 -26.285904 1.2899062e-38 0 -0.87552983 -0.48316395 0
22.130337 -216.89606 -26.519514 1.2254413e-38 0 -0.94507325 -0.32685852 0
22.164474 -216.82637 -26.754387 1.0779288e-38 0 -0.95869249 -0.28444457 0
22.166613 -216.82201 -26.997343 1.1055875e-38 0 -0.99983871 -0.017959248 0
22.204573 -216.74452 -27.231133 1.0871128e-38 0 -0.94922477 -0.31459871 0
22.204573 -216.74452 -27.474674 1.0594905e-38 0 -1 0 0
22.171165 -216.81271 -27.727051 1.03194e-38 0 -0.96538109 0.2608436 0
22.115498 -216.92635 -27.985542 1.0227204e-38 0 -0.91545081 0.40242982 0
22.317186 -216.51465 -28.175669 1.0226123e-38 0 -0.4192622 -0.90786517 0
22.373983 -216.39871 -28.403942 1.0133564e-38 0 -0.89159793 -0.45282784 0
22.429695 -216.28499 -28.63232 1.0225758e-38 0 -0.89515561 -0.44575363 0
22.515989 -216.10884 -28.852146 1.3081288e-38 0 -0.78037179 -0.62531579 0
22.550554 -216.03828 -29.085924 1.2528114e-38 0 -0.95734787 -0.2889376 0
22.645826 -215.84381 -29.302738 1.252847e-38 0 -0.74441874 -0.66771299 0
22.739124 -215.65337 -29.519728 1.3818853e-38 0 -0.75158179 -0.65963995 0
22.811201 -215.50624 -29.742371 1.3819579e-38 0 -0.8342976 -0.55131441 0
22.914335 -215.29572 -29.955906 1.262104e-38 0 -0.71210754 -0.70207036 0
22.979856 -215.16197 -30.179853 1.2528492e-38 0 -0.85854858 -0.51273221 0
23.024603 -215.07063 -30.409588 1.3173509e-38 0 -0.92924827 -0.36945578 0
23.071823 -214.97424 -30.63847 1.3174225e-38 0 -0.92160875 -0.38812017 0
23.145521 -214.82381 -30.859426 1.326642e-38 0 -0.82660317 -0.56278515 0
23.240189 -214.63057 -31.07391 1.3265702e-38 0 -0.74294549 -0.66935194 0
23.317907 -214.47192 -31.293106 1.3450093e-38 0 -0.81008732 -0.58630919 0
23.407999 -214.28802 -31.508301 1.3542288e-38 0 -0.76022226 -0.64966309 0
23.515665 -214.06825 -31.717829 1.3358616e-38 0 -0.69003671 -0.72377437 0
23.630678 -213.83348 -31.924706 1.2254064e-38 0 -0.66112775 -0.75027335 0
23.756538 -213.57657 -32.127804 1.2346259e-38 0 -0.62015742 -0.78447741 0
23.830116 -213.42638 -32.346611 1.1883136e-38 0 -0.82445979 -0.56592041 0
23.885164 -213.31401 -32.570942 1.1607265e-38 0 -0.8941077 -0.44785208 0
23.951252 -213.17911 -32.79163 1.0870053e-38 0 -0.85321623 -0.52155739 0
23.907576 -213.26826 -33.046852 1.0594545e-38 0 -0.94405508 0.32978785 0
23.992777 -213.09435 -33.261261 1.0778936e-38 0 -0.77662349 -0.62996507 0
24.056675 -212.96391 -33.482201 1.0871129e-38 0 -0.86113667 -0.50837362 0
24.068508 -212.93976 -33.719772 1.059526e-38 0 -0.99487102 -0.10115166 0
24.131218 -212.81175 -33.940796 1.0503061e-38 0 -0.86534983 -0.50116807 0
24.193605 -212.6844 -34.161728 1.0227199e-38 0 -0.86637384 -0.49939609 0
24.22403 -212.6223 -34.393005 1.0595634e-38 0 -0.96578717 -0.25933588 0
24.305182 -212.45665 -34.607368 1.1056974e-38 0 -0.79127568 -0.61145949 0
24.333572 -212.3987 -34.839115 1.0965132e-38 0 -0.97012657 -0.2425995 0
24.609512 -211.83543 -34.987377 1.0873642e-38 0 -0.25454938 -0.96705973 0
24.731979 -211.58545 -35.186558 1.1057667e-38 0 -0.62315398 -0.78209919 0
24.765385 -211.51726 -35.415672 1.1333898e-38 0 -0.95844901 -0.2852639 0
24.843323 -211.35817 -35.629425 1.1518292e-38 0 -0.80220389 -0.59705025 0
24.921251 -211.1991 -35.842903 1.08697e-38 0 -0.80186343 -0.59750736 0
24.982494 -211.07408 -36.061928 1.0685309e-38 0 -0.86848503 -0.49571532 0
25.033909 -210.96913 -36.284203 1.0593116e-38 0 -0.90426928 -0.42696258 0
25.010332 -211.01726 -36.532799 1.0686033e-38 0 -0.98177189 0.19006313 0
25.084555 -210.86575 -36.746861 1.1055534e-38 0 -0.8162449 -0.57770616 0
25.154327 -210.72333 -36.962261 1.1055533e-38 0 -0.83414435 -0.55154628 0
25.170654 -210.69 -37.196674 1.0503435e-38 0 -0.99004531 -0.14074916 0
25.186979 -210.65668 -37.431095 1.0135009e-38 0 -0.99004591 -0.14074467 0
25.317623 -210.39 -37.864063 1.0042457e-38 0 -0.85145122 -0.52443391 0
25.415602 -210.19 -38.068195 1.041052e-38 0 -0.71430469 -0.69983488 0
25.376827 -210.26915 -38.322731 1.0686751e-38 0 -0.95490104 0.2969245 0
25.376827 -210.26915 -38.563061 1.0594556e-38 0 -1 0 0
25.359821 -210.30386 -38.809879 1.0226497e-38 0 -0.99025387 0.13927406 0
25.427853 -210.16499 -39.265232 9.85808e-39 0 -0.95650715 -0.29170874 0
25.445345 -210.12929 -39.499138 9.8587961e-39 0 -0.98854882 -0.15090133 0
25.478888 -210.06082 -39.726887 9.9506288e-39 0 -0.95766234 -0.2878938 0
25.495893 -210.02611 -39.960979 1.0226497e-38 0 -0.98918301 -0.14668652 0
25.516315 -209.98442 -40.193771 1.0594556e-38 0 -0.9843418 -0.17627017 0
25.631979 -209.74832 -40.38924 1.0501642e-38 0 -0.6377157 -0.77027184 0
25.56394 -209.88721 -40.656696 1.0500563e-38 0 -0.88747698 0.46085209 0
25.631979 -209.74832 -40.870609 1.0317251e-38 0 -0.83872646 -0.54455298 0
25.697926 -209.61371 -41.085144 1.0501645e-38 0 -0.84705859 -0.53149956 0
25.700018 -209.60944 -41.3251 1.0225774e-38 0 -0.99984157 -0.017802371 0
25.768064 -209.47054 -41.53854 9.8573458e-39 0 -0.83814776 -0.54544318 0
25.836105 -209.33165 -41.751766 9.7647816e-39 0 -0.83792537 -0.54578483 0
25.917757 -209.16498 -41.959236 1.0041723e-38 0 -0.77959174 -0.62628794 0
25.99197 -209.01349 -42.169487 1.09626e-38 0 -0.81133544 -0.58458078 0
26.088474 -208.8165 -42.370308 1.1423224e-38 0 -0.71388143 -0.70026666 0
26.121881 -208.74831 -42.596966 1.151435e-38 0 -0.95760024 -0.28810039 0
26.14229 -208.70665 -42.828999 1.160655e-38 0 -0.98426414 -0.17670345 0
26.346407 -208.28999 -43.464603 1.0688177e-38 0 -0.83632493 -0.54823405 0
26.407644 -208.16499 -43.678959 1.1241351e-38 0 -0.8638503 -0.50374871 0
26.380434 -208.22054 -43.931053 1.1610136e-38 0 -0.9765783 0.21516199 0
26.388807 -208.20345 -44.168049 1.1148082e-38 0 -0.99741012 -0.071923599 0
26.448475 -208.08165 -44.623566 1.0502712e-38 0 -0.96606344 -0.25830513 0
26.448475 -208.08165 -44.864353 9.6751125e-39 0 -1 0 0
26.244349 -208.49832 -45.195145 1.0043895e-38 0 -0.62177271 0.78319776 0
26.244349 -208.49832 -45.436653 1.0411961e-38 0 -1 0 0
26.448475 -208.08165 -45.587406 9.3070657e-39 0 -0.3402198 -0.94034588 0
26.346407 -208.28999 -45.874325 8.936844e-39 0 -0.80917126 0.58757275 0
27.997143 -204.92043 -58.893475 3.2272142e-39 0 -0.96810102 -0.25056031 0
27.997143 -204.92043 -59.138943 3.8725822e-39 0 -1 0 0
27.848036 -205.22479 -59.964443 3.1346542e-39 0 -0.93825626 0.3459408 0
27.855137 -205.2103 -60.206688 3.1339354e-39 0 -0.99821442 -0.059732843 0
27.869347 -205.18129 -60.444824 3.8714976e-39 0 -0.99266291 -0.1209145 0
27.830992 -205.25958 -60.714516 4.3324785e-39 0 -0.96035069 0.27879483 0
27.784145 -205.35521 -60.989666 3.3186895e-39 0 -0.94457942 0.32828289 0
21.855038 -217.75967 -24.672091 1.6220632e-38 0 -1 0 0
21.87652 -217.71582 -24.911018 1.6773072e-38 0 -0.9835698 -0.1805283 0
21.91667 -217.63387 -25.145494 1.6127702e-38 0 -0.94399852 -0.32994986 0
21.982586 -217.49931 -25.373669 1.5758204e-38 0 -0.86138624 -0.50795066 0
22.028446 -217.4057 -25.606451 1.4189445e-38 0 -0.92778832 -0.37310705 0
22.092884 -217.27417 -25.834553 1.3082384e-38 0 -0.86629474 -0.4995333 0
22.135014 -217.18817 -26.067924 1.2528855e-38 0 -0.93831772 -0.34577432 0
22.149464 -217.15868 -26.308043 1.2806161e-38 0 -0.99253988 -0.12192005 0
22.213795 -217.02736 -26.53565 1.2990199e-38 0 -0.86617738 -0.4997367 0
22.235443 -216.98317 -26.77383 1.1239561e-38 0 -0.98322135 -0.18241659 0
22.263281 -216.92635 -27.010399 1.1514706e-38 0 -0.97234315 -0.23355678 0
22.321177 -216.80817 -27.239168 1.1422511e-38 0 -0.88845462 -0.45896441 0
22.189053 -217.07787 -27.517141 1.08697e-38 0 -0.71770769 0.69634455 0
22.263281 -216.92635 -27.741657 1.0501996e-38 0 -0.82889742 -0.55940068 0
22.361259 -216.72635 -27.959612 1.0686388e-38 0 -0.73680854 -0.67610151 0
22.500477 -216.44217 -28.166193 1.0686388e-38 0 -0.58799481 -0.80886471 0
22.526505 -216.38904 -28.402666 1.0316523e-38 0 -0.9756763 -0.21921632 0
22.594194 -216.25087 -28.627783 1.0316523e-38 0 -0.85227466 -0.52309471 0
22.654892 -216.12697 -28.854574 1.1331031e-38 0 -0.87757492 -0.47943944 0
22.703384 -216.02798 -29.084532 1.1884202e-38 0 -0.91852129 -0.39537159 0
22.79361 -215.84381 -29.302738 1.3358971e-38 0 -0.76418465 -0.64499766 0
22.897425 -215.6319 -29.516779 1.4188728e-38 0 -0.71062839 -0.70356762 0
22.986313 -215.45045 -29.734648 1.4004337e-38 0 -0.76842088 -0.63994485 0
23.075575 -215.26825 -29.952072 1.3266418e-38 0 -0.76645309 -0.64230025 0
23.139473 -215.13782 -30.176455 1.2621414e-38 0 -0.86454529 -0.50255495 0
23.195253 -215.02396 -30.402967 1.3635569e-38 0 -0.89347118 -0.44912055 0
23.260168 -214.89145 -30.626635 1.3083471e-38 0 -0.86035258 -0.5096994 0
23.334724 -214.73926 -30.847248 1.2806887e-38 0 -0.82313621 -0.56784403 0
23.433405 -214.53783 -31.060448 1.345118e-38 0 -0.72688365 -0.6867606 0
23.521852 -214.35728 -31.27634 1.3728117e-38 0 -0.76711684 -0.64150733 0
23.606129 -214.18526 -31.493155 1.3267494e-38 0 -0.78337169 -0.6215536 0
23.691322 -214.01135 -31.709381 1.3082381e-38 0 -0.77924329 -0.62672156 0
23.799759 -213.79001 -31.918205 1.3083823e-38 0 -0.6862362 -0.72737879 0
23.907274 -213.57054 -32.1269 1.2991631e-38 0 -0.68909764 -0.7246685 0
24.009207 -213.36247 -32.336914 1.2623195e-38 0 -0.71038949 -0.70380872 0
24.093227 -213.19096 -32.552132 1.1701242e-38 0 -0.78204668 -0.62321985 0
24.09796 -213.1813 -32.791969 1.0871128e-38 0 -0.99919003 -0.040239681 0
24.151213 -213.0726 -33.016506 1.0778936e-38 0 -0.90007007 -0.43574518 0
24.204458 -212.96391 -33.240883 1.0962972e-38 0 -0.89997202 -0.43594763 0
24.257711 -212.85521 -33.465099 1.0871498e-38 0 -0.89982581 -0.43624946 0
24.280527 -212.80864 -33.698994 1.0594911e-38 0 -0.98074889 -0.19527322 0
24.295267 -212.77855 -33.935497 1.0502715e-38 0 -0.9920032 -0.12621248 0
24.341389 -212.6844 -34.161728 1.059384e-38 0 -0.92324495 -0.38421187 0
24.432669 -212.49808 -34.37291 1.1054816e-38 0 -0.74985838 -0.66159832 0
24.502661 -212.35521 -34.590843 1.1699463e-38 0 -0.83631343 -0.54825151 0
24.559464 -212.23926 -34.812962 1.169946e-38 0 -0.88648057 -0.46276578 0
24.861208 -211.62332 -34.952366 1.105517e-38 0 -0.22074585 -0.97533137 0
24.896835 -211.5506 -35.180767 1.0779302e-38 0 -0.95286512 -0.30339414 0
24.935436 -211.4718 -35.408073 1.1055533e-38 0 -0.94484025 -0.32753152 0
24.991106 -211.35817 -35.629425 1.1241003e-38 0 -0.88962394 -0.45669386 0
25.046774 -211.24454 -35.850601 1.124028e-38 0 -0.88947672 -0.45698056 0
25.113571 -211.10818 -36.067745 1.0593837e-38 0 -0.84687895 -0.53178573 0
25.158115 -211.01726 -36.292469 1.0409812e-38 0 -0.92699349 -0.37507752 0
25.213783 -210.90363 -36.513157 1.0594203e-38 0 -0.88906556 -0.45777994 0
25.36743 -210.59 -36.698891 1.0780025e-38 0 -0.50955766 -0.8604365 0
25.36743 -210.59 -36.938923 1.1056965e-38 0 -1 0 0
25.369806 -210.58514 -37.178196 1.0872571e-38 0 -0.99979448 -0.020275151 0
25.406622 -210.50999 -37.405083 9.9509777e-39 0 -0.9492833 -0.31442207 0
25.400089 -210.52333 -37.647682 9.858066e-39 0 -0.99849242 0.054889139 0
25.416414 -210.49001 -37.882023 1.0226125e-38 0 -0.99003923 -0.14079183 0
25.485001 -210.35001 -38.097107 1.0502715e-38 0 -0.83809668 -0.54552168 0
25.513046 -210.29276 -38.327023 1.0686388e-38 0 -0.97036844 -0.24163012 0
25.540257 -210.23721 -38.55722 1.0594192e-38 0 -0.97210437 -0.23454867 0
25.493984 -210.33167 -38.814999 1.0225772e-38 0 -0.93895489 0.3440403 0
25.473577 -210.37332 -39.063313 1.0041382e-38 0 -0.98621893 0.16544552 0
25.559303 -210.19833 -39.271442 1.0042822e-38 0 -0.7654174 -0.64353424 0
25.575636 -210.16499 -39.505833 9.5836413e-39 0 -0.99003434 -0.14082579 0
25.598316 -210.1187 -39.737804 9.7673081e-39 0 -0.98066127 -0.19571295 0
25.657295 -209.99831 -39.955711 9.9509805e-39 0 -0.87529325 -0.48359251 0
25.70492 -209.90109 -40.177864 1.03194e-38 0 -0.91612411 -0.40089476 0
25.720798 -209.86868 -40.412346 1.0317968e-38 0 -0.99058253 -0.13691659 0
25.728729 -209.85249 -40.64999 1.0132859e-38 0 -0.99768752 -0.067967735 0
25.779762 -209.74832 -40.870609 1.0132132e-38 0 -0.90426373 -0.42697436 0
25.677704 -209.95665 -41.152164 1.0593818e-38 0 -0.8038727 0.59480131 0
25.779762 -209.74832 -41.352402 1.0225777e-38 0 -0.69296777 -0.72096848 0
25.851202 -209.60249 -41.564625 1.0133577e-38 0 -0.82417798 -0.56633073 0
25.952126 -209.39648 -41.764652 9.5807561e-39 0 -0.69661462 -0.71744555 0
26.02471 -209.24832 -41.975899 1.0133567e-38 0 -0.818703 -0.57421714 0
26.085947 -209.12332 -42.191563 1.0779296e-38 0 -0.86517924 -0.5014627 0
26.162029 -208.96802 -42.400932 1.1240275e-38 0 -0.80316192 -0.59576076 0
26.222033 -208.84554 -42.616722 1.188637e-38 0 -0.86967379 -0.49362689 0
26.282545 -208.72202 -42.832138 1.0965135e-38 0 -0.86750478 -0.4974288 0
26.366619 -208.5504 -43.037502 1.0135383e-38 0 -0.76734078 -0.64123946 0
26.43749 -208.40573 -43.248165 1.0411607e-38 0 -0.82433802 -0.56609797 0
26.508768 -208.26024 -43.45842 1.0780378e-38 0 -0.8223173 -0.56902921 0
26.537935 -208.2007 -43.686417 1.1608697e-38 0 -0.9675526 -0.25266966 0
26.582653 -208.10942 -43.907722 1.1792006e-38 0 -0.92445421 -0.38129315 0
26.596256 -208.08165 -44.382893 1.1238117e-38 0 -0.9982965 -0.058344763 0
26.637079 -207.99832 -44.605785 1.1422511e-38 0 -0.93668318 -0.35017812 0
26.647284 -207.97749 -45.082787 1.0409812e-38 0 -0.99904805 -0.043623414 0
26.666771 -207.93771 -45.315067 1.0042473e-38 0 -0.98565042 -0.16879937 0
26.666233 -207.93881 -45.556274 8.4769547e-39 0 -0.99998963 0.0045546805 0
28.144926 -204.92043 -59.138943 4.0559071e-39 0 -0.97618681 -0.21693155 0
28.00292 -205.2103 -60.206688 2.8569967e-39 0 -0.96506876 0.26199666 0
28.00292 -205.2103 -60.453293 3.6860343e-39 0 -1 0 0
27.931929 -205.35521 -60.742561 3.8704256e-39 0 -0.89408255 0.44790199 0
28.00292 -205.2103 -60.946987 2.9484693e-39 0 -0.81581527 -0.57831252 0
21.965698 -217.83545 -24.680723 1.5759288e-38 0 -1 0 0
21.99148 -217.78282 -24.91873 1.6035507e-38 0 -0.97641486 -0.21590298 0
22.02879 -217.70667 -25.153955 1.6586153e-38 0 -0.95138031 -0.30801868 0
22.099302 -217.56273 -25.381107 1.474261e-38 0 -0.84469581 -0.53524661 0
22.164091 -217.43048 -25.609385 1.2437009e-38 0 -0.86528254 -0.50128448 0
22.22517 -217.3058 -25.838335 1.2068232e-38 0 -0.87822199 -0.4782533 0
22.283222 -217.1873 -26.067818 1.2713598e-38 0 -0.88853049 -0.45881745 0
22.327559 -217.0968 -26.300508 1.2529207e-38 0 -0.93199253 -0.36247763 0
22.36652 -217.01727 -26.53441 1.2067874e-38 0 -0.94677013 -0.3219105 0
22.406601 -216.93546 -26.767916 1.1329596e-38 0 -0.94374388 -0.3306773 0
22.455601 -216.83543 -26.99902 1.1145205e-38 0 -0.91773468 -0.39719397 0
22.476801 -216.79216 -27.237144 1.1053009e-38 0 -0.98388553 -0.17879944 0
22.448179 -216.85059 -27.488184 1.0961177e-38 0 -0.97396982 0.22667773 0
22.474678 -216.79649 -27.724968 1.0408724e-38 0 -0.97488499 -0.22270881 0
22.520374 -216.70322 -27.956615 1.0685311e-38 0 -0.92762089 -0.37352303 0
22.663471 -216.41112 -28.162136 1.1237766e-38 0 -0.57543623 -0.8178466 0
22.68376 -216.36971 -28.400116 1.003922e-38 0 -0.98519456 -0.17143981 0
22.770735 -216.19217 -28.61998 9.9466645e-39 0 -0.7780214 -0.62823784 0
22.82102 -216.08952 -28.849554 1.0315796e-38 0 -0.9129048 -0.40817264 0
22.882547 -215.96393 -29.075874 1.1146989e-38 0 -0.87438411 -0.48523429 0
22.944092 -215.8383 -29.301985 1.2162574e-38 0 -0.874143 -0.4856686 0
23.010359 -215.70303 -29.526554 1.2992335e-38 0 -0.85660386 -0.5159747 0
23.081352 -215.55812 -29.749559 1.3084531e-38 0 -0.83851355 -0.54488069 0
23.183262 -215.3501 -29.963499 1.2529923e-38 0 -0.71695107 -0.69712347 0
23.270691 -215.17163 -30.18121 1.252921e-38 0 -0.77336496 -0.63396102 0
23.38122 -214.94601 -30.391914 1.4556795e-38 0 -0.68254226 -0.73084605 0
23.464748 -214.77551 -30.610064 1.464647e-38 0 -0.78789699 -0.61580694 0
23.559414 -214.58228 -30.824638 1.3725592e-38 0 -0.74308747 -0.66919422 0
23.596102 -214.50739 -31.05603 1.3449005e-38 0 -0.95141071 -0.30792469 0
23.66 -214.37695 -31.279217 1.3725595e-38 0 -0.86337453 -0.50456357 0
23.730991 -214.23204 -31.500048 1.3266058e-38 0 -0.83606112 -0.54863644 0
23.84889 -213.99138 -31.706417 1.2896919e-38 0 -0.65095139 -0.75911939 0
23.955286 -213.7742 -31.91584 1.2989118e-38 0 -0.69413745 -0.71984249 0
24.052105 -213.57657 -32.127804 1.33579e-38 0 -0.73140097 -0.68194765 0
24.127419 -213.42284 -32.346073 1.2805811e-38 0 -0.81756771 -0.57583243 0
24.217337 -213.23929 -32.559521 1.2344111e-38 0 -0.75821495 -0.65200466 0
24.272369 -213.12695 -32.7836 1.1884205e-38 0 -0.89395487 -0.44815689 0
24.298996 -213.0726 -33.016506 1.1239914e-38 0 -0.97383475 -0.22725736 0
24.352242 -212.96391 -33.240883 1.0686388e-38 0 -0.89997202 -0.43594763 0
24.41614 -212.83348 -33.461681 1.0409798e-38 0 -0.86099428 -0.50861454 0
24.42831 -212.80864 -33.698994 1.0777855e-38 0 -0.9945659 -0.10410888 0
24.490698 -212.68129 -33.919979 1.077749e-38 0 -0.86642599 -0.49930546 0
24.519596 -212.6223 -34.151749 1.0870758e-38 0 -0.96910256 -0.24665803 0
24.580452 -212.49808 -34.37291 1.114734e-38 0 -0.87188059 -0.4897185 0
24.624407 -212.40836 -34.599503 1.1240263e-38 0 -0.92976648 -0.36814994 0
24.705372 -212.24309 -34.813591 1.1332825e-38 0 -0.79157829 -0.61106765 0
24.91621 -211.81271 -34.983624 1.096477e-38 0 -0.36744317 -0.93004596 0
25.027546 -211.58545 -35.186558 1.0872222e-38 0 -0.66605163 -0.7459057 0
25.105482 -211.42636 -35.400471 1.1056979e-38 0 -0.80241805 -0.5967623 0
25.138889 -211.35817 -35.629425 1.0319414e-38 0 -0.95839441 -0.28544724 0
25.261354 -211.10818 -35.827488 1.1054816e-38 0 -0.62100804 -0.78380418 0
25.386057 -210.85364 -36.024323 1.087079e-38 0 -0.61171806 -0.79107583 0
25.380121 -210.86575 -36.266457 1.0870075e-38 0 -0.99875057 0.049973719 0
25.417234 -210.78999 -36.493519 1.0685328e-38 0 -0.94859242 -0.31650028 0
25.417234 -210.78999 -36.733681 1.0778597e-38 0 -1 0 0
25.449894 -210.72333 -36.962261 1.0410168e-38 0 -0.96000409 -0.27998585 0
25.515213 -210.59 -37.179054 1.0134304e-38 0 -0.85179824 -0.52386993 0
25.61319 -210.39 -37.864063 1.0224702e-38 0 -0.95992368 -0.28026173 0
25.580524 -210.45668 -38.11639 1.0776788e-38 0 -0.96681082 0.25549319 0
25.655388 -210.30386 -38.329041 1.1053009e-38 0 -0.81206173 -0.58357149 0
25.621361 -210.37332 -38.582123 1.1236322e-38 0 -0.96434128 0.26466185 0
25.655388 -210.30386 -38.809879 1.0961541e-38 0 -0.95650899 -0.29170281 0
25.655388 -210.30386 -39.050442 1.050201e-38 0 -1 0 0
25.655388 -210.30386 -39.291115 1.0134671e-38 0 -1 0 0
25.723419 -210.16499 -39.505833 1.013287e-38 0 -0.8396858 -0.54307252 0
25.79146 -210.02611 -39.960979 1.013393e-38 0 -0.95646137 -0.29185885 0
25.815283 -209.97748 -40.192444 1.0410517e-38 0 -0.9786346 -0.2056073 0
25.876513 -209.85249 -40.409241 1.041052e-38 0 -0.86634189 -0.49945146 0
25.886717 -209.83167 -40.645969 9.9491855e-39 0 -0.99615175 -0.087645046 0
25.927546 -209.74832 -40.870609 9.7647942e-39 0 -0.93755352 -0.34784114 0
25.927546 -209.74832 -41.11145 9.8573458e-39 0 -1 0 0
26.000114 -209.60019 -41.32328 9.3978067e-39 0 -0.81950217 -0.57307595 0
26.029604 -209.53999 -41.552265 9.582198e-39 0 -0.96714026 -0.25424349 0
26.082903 -209.4312 -41.771553 9.9491897e-39 0 -0.89580977 -0.44443759 0
26.182697 -209.22749 -41.971737 1.0040311e-38 0 -0.70091587 -0.71324402 0
