# .PCD v0.7 - Point Cloud Data file format
VERSION 0.7
FIELDS x y z rgb normal_x normal_y normal_z curvature
SIZE 4 4 4 4 4 4 4 4
TYPE F F F F F F F F
COUNT 1 1 1 1 1 1 1 1
WIDTH 653
HEIGHT 1
VIEWPOINT 0 0 0 1 0 0 0
POINTS 653
DATA ascii
28.845783 -155.07291 -45.282772 1.6089148e-38 0 -0.96279269 0.27024111 0
28.756134 -155.25591 -45.518887 1.1497374e-38 0 -0.79039896 0.6125924 0
28.149326 -156.49455 -48.133106 9.2014862e-39 0 -0.90369332 0.42818034 0
18.708853 -175.81522 -3.5185707 9.2014862e-39 0 -1 0 0
19.265539 -174.67888 -3.6915524 1.8385036e-38 0 -0.15049374 -0.98861098 0
19.563417 -174.07083 -3.8732274 2.2976811e-38 0 -0.28627893 -0.95814627 0
19.762491 -173.66447 -4.0580692 4.0586985e-39 0 -0.41405213 -0.91025317 0
19.947218 -173.2874 -4.2427521 4.0586985e-39 0 -0.43985391 -0.89806932 0
20.078663 -173.01909 -4.4292746 6.3545859e-39 0 -0.57079983 -0.82108927 0
20.178455 -172.81538 -4.6168585 6.3545859e-39 0 -0.67739964 -0.73561513 0
20.283504 -172.60095 -4.8037543 8.6504733e-39 0 -0.65704602 -0.75385052 0
20.349646 -172.46594 -4.9923625 1.762811e-39 0 -0.81314242 -0.58206475 0
20.479004 -172.20189 -5.1770859 1.0946361e-38 0 -0.57322496 -0.81939805 0
20.601299 -171.95226 -5.3616982 1.3242248e-38 0 -0.59460008 -0.80402166 0
20.709152 -171.7321 -5.5466948 1.3242248e-38 0 -0.6433295 -0.76558936 0
20.879467 -171.38445 -5.7272897 8.6504733e-39 0 -0.4609783 -0.88741142 0
21.058468 -171.01906 -5.9066157 8.6504733e-39 0 -0.44058266 -0.89771199 0
21.197283 -170.7357 -6.0879312 8.6504733e-39 0 -0.53898573 -0.8423149 0
21.27951 -170.56786 -6.2726159 8.6504733e-39 0 -0.7400369 -0.67256629 0
21.332285 -170.46013 -6.4590845 1.0946361e-38 0 -0.86588591 -0.50024152 0
21.395018 -170.33208 -6.6446095 8.6504733e-39 0 -0.82299811 -0.56804413 0
21.467691 -170.18373 -6.8291345 8.6504733e-39 0 -0.7793709 -0.62656283 0
21.577457 -169.95967 -7.0104766 1.5538135e-38 0 -0.62911475 -0.77731246 0
21.632698 -169.84691 -7.1957436 8.6504733e-39 0 -0.85421646 -0.51991755 0
21.748983 -169.60954 -7.3757801 1.3242248e-38 0 -0.60431403 -0.79674619 0
21.828653 -169.44691 -7.558434 1.3242248e-38 0 -0.74686259 -0.66497844 0
21.897112 -169.30717 -7.7417464 8.6504733e-39 0 -0.79527825 -0.60624468 0
21.968575 -169.1613 -7.9245191 6.3545859e-39 0 -0.78158605 -0.62379748 0
22.329964 -168.42361 -8.080801 1.762811e-39 0 -0.20725428 -0.9782871 0
22.073706 -168.9467 -8.2927256 6.3545859e-39 0 -0.37549576 0.92682409 0
22.103666 -168.88554 -8.4786673 8.6504733e-39 0 -0.94993764 -0.31243962 0
22.167849 -168.75453 -8.6611948 1.0946361e-38 0 -0.81239426 -0.58310854 0
22.249134 -168.58861 -8.8417845 1.0946361e-38 0 -0.73637468 -0.67657399 0
22.312435 -168.4594 -9.0238705 4.0586985e-39 0 -0.81553018 -0.57871461 0
22.299414 -168.48598 -9.2135715 6.3545859e-39 0 -0.99032545 0.13876386 0
22.33909 -168.40498 -9.3978214 1.5538135e-38 0 -0.91545469 -0.402421 0
22.392218 -168.29654 -9.5804787 1.3242248e-38 0 -0.85987234 -0.51050907 0
22.489239 -168.0985 -9.7581434 1.0946361e-38 0 -0.66777056 -0.74436724 0
22.574247 -167.92497 -9.9367657 1.3242248e-38 0 -0.71727097 -0.69679433 0
22.662588 -167.74464 -10.11468 1.5538135e-38 0 -0.70232654 -0.71185493 0
22.761919 -167.54189 -10.290984 8.6504733e-39 0 -0.65616149 -0.75462049 0
22.802727 -167.45859 -10.473775 1.3242248e-38 0 -0.90997028 -0.41467336 0
22.845985 -167.37029 -10.656128 1.0946361e-38 0 -0.90002906 -0.43583 0
22.876671 -167.30765 -10.839853 1.5538135e-38 0 -0.94650435 -0.3226909 0
22.933804 -167.19102 -11.020212 1.7834023e-38 0 -0.8397398 -0.54298908 0
22.978058 -167.10069 -11.201976 2.012991e-38 0 -0.89550811 -0.44504532 0
23.045797 -166.96242 -11.380578 2.012991e-38 0 -0.7907185 -0.61218005 0
23.095448 -166.86107 -11.561275 1.7834023e-38 0 -0.87217897 -0.48918691 0
23.187962 -166.67223 -11.73614 1.7834023e-38 0 -0.67943174 -0.73373884 0
23.257196 -166.5309 -11.91377 1.7834023e-38 0 -0.78253508 -0.62260652 0
23.329199 -166.38393 -12.090762 2.2425798e-38 0 -0.7693339 -0.63884687 0
23.391235 -166.25729 -12.268865 1.7834023e-38 0 -0.81499416 -0.57946914 0
23.415537 -166.20769 -12.452026 1.0946361e-38 0 -0.96522635 -0.26141557 0
23.533413 -165.96707 -12.621817 1.3242248e-38 0 -0.57655579 -0.81705779 0
23.679636 -165.66859 -12.787058 1.3242248e-38 0 -0.4843446 -0.87487727 0
23.786068 -165.45134 -12.957551 1.7834023e-38 0 -0.61735815 -0.78668231 0
23.878506 -165.26265 -13.129714 1.5538135e-38 0 -0.67401457 -0.73871815 0
23.924404 -165.16896 -13.308517 2.012991e-38 0 -0.88577038 -0.46412367 0
23.971693 -165.07243 -13.486952 2.012991e-38 0 -0.87954956 -0.47580725 0
24.022104 -164.96953 -13.664743 1.7834023e-38 0 -0.86548263 -0.50093889 0
24.051573 -164.90938 -13.845634 1.7834023e-38 0 -0.94891369 -0.31553581 0
24.079515 -164.85234 -14.026677 1.5538135e-38 0 -0.9537856 -0.30048785 0
24.122692 -164.76421 -14.205199 1.7834023e-38 0 -0.89667857 -0.44268218 0
24.189976 -164.62686 -14.379652 1.7834023e-38 0 -0.78571779 -0.61858517 0
24.25466 -164.49483 -14.554287 1.7834023e-38 0 -0.79767418 -0.60308868 0
24.356113 -164.28773 -14.722563 1.0946361e-38 0 -0.63062274 -0.77608949 0
24.381327 -164.23627 -14.903319 1.3242248e-38 0 -0.96177202 -0.2738511 0
24.479925 -164.035 -15.071476 1.0946361e-38 0 -0.64116746 -0.76740098 0
24.490622 -164.01317 -15.254457 1.7834023e-38 0 -0.99295515 -0.11849075 0
24.515005 -163.96339 -15.435034 1.7834023e-38 0 -0.96404767 -0.26572931 0
24.566061 -163.85918 -15.610826 1.7834023e-38 0 -0.86019689 -0.50996202 0
24.641396 -163.7054 -15.782109 1.5538135e-38 0 -0.74410671 -0.66806078 0
24.690718 -163.60472 -15.957822 1.7834023e-38 0 -0.86766756 -0.49714476 0
24.739075 -163.50601 -16.133549 1.7834023e-38 0 -0.87186641 -0.4897438 0
24.811285 -163.35861 -16.304697 1.7834023e-38 0 -0.75772017 -0.65257955 0
24.853432 -163.27258 -16.481216 1.7834023e-38 0 -0.89892483 -0.43810287 0
24.892563 -163.1927 -16.658169 1.7834023e-38 0 -0.91143674 -0.4114404 0
24.921612 -163.13341 -16.836931 2.012991e-38 0 -0.94914716 -0.31483293 0
24.939508 -163.09688 -17.017771 1.7834023e-38 0 -0.98020196 -0.19800054 0
24.984957 -163.0041 -17.193195 1.5538135e-38 0 -0.88399285 -0.46750039 0
24.992029 -162.98967 -17.376053 2.012991e-38 0 -0.99689865 -0.078695409 0
25.011614 -162.94969 -17.556427 1.2117981e-39 0 -0.97630739 -0.21638824 0
25.037552 -162.89674 -17.735479 1.2117981e-39 0 -0.95895052 -0.28357354 0
25.07093 -162.82861 -17.912952 1.2117981e-39 0 -0.9335717 -0.35839072 0
25.105816 -162.7574 -18.090021 1.2117981e-39 0 -0.92777896 -0.37313035 0
25.158846 -162.64915 -18.26322 2.2425798e-38 0 -0.84800565 -0.52998716 0
25.208286 -162.54823 -18.436996 2.2425798e-38 0 -0.8647477 -0.5022065 0
25.226017 -162.51204 -18.617332 2.2425798e-38 0 -0.98044807 -0.19677816 0
25.236139 -162.49138 -18.799271 2.012991e-38 0 -0.99361408 -0.11283209 0
25.240124 -162.48325 -18.982546 2.012991e-38 0 -0.99901688 -0.044331901 0
25.248564 -162.46602 -19.164871 2.012991e-38 0 -0.99556589 -0.094066918 0
25.273739 -162.41463 -19.343525 2.2425798e-38 0 -0.9610284 -0.27644983 0
25.300396 -162.36021 -19.521788 2.012991e-38 0 -0.95643604 -0.29194218 0
25.320326 -162.31953 -19.701504 2.012991e-38 0 -0.97532564 -0.22077142 0
25.329565 -162.30067 -19.883604 2.012991e-38 0 -0.99467951 -0.10301752 0
25.394262 -162.16861 -20.053043 1.7834023e-38 0 -0.78872317 -0.6147486 0
25.454184 -162.0463 -20.22337 2.012991e-38 0 -0.8122583 -0.58329785 0
25.525818 -161.90007 -20.39077 1.7834023e-38 0 -0.75313461 -0.65786648 0
25.590651 -161.76773 -20.55953 1.7834023e-38 0 -0.78690219 -0.61707777 0
25.636728 -161.67368 -20.732506 1.5538135e-38 0 -0.8785249 -0.47769651 0
25.659819 -161.62654 -20.910831 1.3242248e-38 0 -0.96679825 -0.25554067 0
25.693592 -161.5576 -21.086536 1.3242248e-38 0 -0.93090963 -0.36524963 0
25.692217 -161.56041 -21.270685 1.5538135e-38 0 -0.99988383 0.015244689 0
25.724293 -161.49493 -21.446703 1.5538135e-38 0 -0.9372558 -0.34864241 0
25.801453 -161.33743 -21.611517 1.5538135e-38 0 -0.72296375 -0.69088596 0
25.874134 -161.18907 -21.777178 1.5538135e-38 0 -0.74493206 -0.66714025 0
25.918266 -161.09898 -21.94976 1.7834023e-38 0 -0.88649052 -0.46274683 0
25.957108 -161.0197 -22.123558 1.7834023e-38 0 -0.90980208 -0.41504228 0
25.956549 -161.02084 -22.307285 2.012991e-38 0 -0.99998051 0.0062287268 0
25.975677 -160.9818 -22.486013 1.7834023e-38 0 -0.97695655 -0.2134385 0
26.019945 -160.89143 -22.658201 1.7834023e-38 0 -0.88547415 -0.46468854 0
26.061432 -160.80675 -22.830994 1.5538135e-38 0 -0.89795339 -0.44009063 0
26.101881 -160.72418 -23.003941 1.5538135e-38 0 -0.90243548 -0.430825 0
26.141462 -160.64339 -23.177008 2.012991e-38 0 -0.90612161 -0.4230172 0
26.170944 -160.58321 -23.352673 2.012991e-38 0 -0.94602406 -0.32409638 0
26.189768 -160.54478 -23.531137 2.2425798e-38 0 -0.97760093 -0.21046729 0
26.20542 -160.51283 -23.710453 2.2425798e-38 0 -0.98449284 -0.17542493 0
26.234978 -160.4525 -23.885954 2.2425798e-38 0 -0.94567859 -0.32510304 0
26.281435 -160.35767 -24.056732 1.2117981e-39 0 -0.87425172 -0.48547298 0
26.326683 -160.2653 -24.227715 1.7834023e-38 0 -0.87983876 -0.47527233 0
26.382179 -160.15202 -24.395708 1.5538135e-38 0 -0.82911038 -0.55908495 0
26.440987 -160.03198 -24.562601 1.3242248e-38 0 -0.8118158 -0.58391356 0
26.469093 -159.97461 -24.73802 1.3242248e-38 0 -0.95045596 -0.31085914 0
26.480665 -159.95099 -24.918108 1.7834023e-38 0 -0.99150777 -0.13004757 0
26.474348 -159.96388 -25.103359 2.2425798e-38 0 -0.99758661 0.069433056 0
26.478205 -159.95601 -25.285751 2.2425798e-38 0 -0.99906951 -0.04312801 0
26.593599 -159.72046 -25.435633 2.2425798e-38 0 -0.53683966 -0.84368426 0
26.608229 -159.6906 -25.614717 2.2425798e-38 0 -0.98638135 -0.16447394 0
26.642675 -159.62029 -25.787939 2.012991e-38 0 -0.92657614 -0.37610719 0
26.653425 -159.59834 -25.968149 2.2425798e-38 0 -0.99266887 -0.12086602 0
26.679873 -159.54436 -26.143661 2.2425798e-38 0 -0.95580685 -0.29399535 0
26.70549 -159.49207 -26.31938 2.2425798e-38 0 -0.95845991 -0.2852273 0
26.709997 -159.48286 -26.501486 1.2117981e-39 0 -0.99872601 -0.050461419 0
26.726921 -159.44832 -26.679832 1.2117981e-39 0 -0.98175186 -0.19016619 0
26.750334 -159.40053 -26.856182 1.2117981e-39 0 -0.96518606 -0.2615642 0
26.773468 -159.3533 -27.032579 2.2425798e-38 0 -0.96597999 -0.25861686 0
26.813505 -159.27158 -27.203671 2.2425798e-38 0 -0.90233958 -0.4310258 0
26.852062 -159.19287 -27.375124 2.2425798e-38 0 -0.90881974 -0.41718903 0
26.900614 -159.09377 -27.543327 2.012991e-38 0 -0.86156982 -0.50763905 0
26.933849 -159.02592 -27.716276 2.2425798e-38 0 -0.93094116 -0.36516917 0
26.980398 -158.93091 -27.88489 1.7834023e-38 0 -0.87119681 -0.49093392 0
27.006807 -158.877 -28.059872 1.5538135e-38 0 -0.95567352 -0.29442841 0
27.027559 -158.83464 -28.236662 2.012991e-38 0 -0.97247618 -0.23300231 0
27.046412 -158.79616 -28.414062 1.7834023e-38 0 -0.97727078 -0.21199471 0
27.078749 -158.73015 -28.587008 1.5538135e-38 0 -0.93426162 -0.35658824 0
27.101772 -158.68315 -28.762976 1.5538135e-38 0 -0.96613616 -0.25803286 0
27.109503 -158.66737 -28.944014 1.7834023e-38 0 -0.99622387 -0.086821653 0
27.12372 -158.63835 -29.122923 1.5538135e-38 0 -0.98709679 -0.16012436 0
27.136255 -158.61276 -29.302404 1.7834023e-38 0 -0.98998898 -0.14114444 0
27.154457 -158.57561 -29.47999 1.7834023e-38 0 -0.97880602 -0.20478961 0
27.178221 -158.5271 -29.655676 1.7834023e-38 0 -0.96393263 -0.2661463 0
27.213631 -158.45482 -29.827335 1.7834023e-38 0 -0.92162919 -0.38807166 0
27.241455 -158.39803 -30.001551 1.7834023e-38 0 -0.95075583 -0.30994105 0
27.266735 -158.34642 -30.176601 1.7834023e-38 0 -0.95918775 -0.28277001 0
27.281313 -158.31667 -30.355368 1.5538135e-38 0 -0.98642945 -0.16418564 0
27.309643 -158.25883 -30.529314 1.7834023e-38 0 -0.94893062 -0.31548473 0
27.332533 -158.21211 -30.705143 1.5538135e-38 0 -0.96646076 -0.25681427 0
27.385592 -158.10381 -30.870218 1.3242248e-38 0 -0.83610314 -0.54857224 0
27.416576 -158.04056 -31.043051 1.3242248e-38 0 -0.93909431 -0.34365955 0
27.47226 -157.9269 -31.206945 1.5538135e-38 0 -0.82172924 -0.5698781 0
27.533123 -157.80266 -31.36882 1.5538135e-38 0 -0.79329139 -0.60884219 0
27.56786 -157.73175 -31.54003 1.5538135e-38 0 -0.92389792 -0.38263905 0
27.597013 -157.67224 -31.713215 1.5538135e-38 0 -0.9457255 -0.32496652 0
27.641632 -157.58116 -31.880671 1.3242248e-38 0 -0.8784678 -0.47780165 0
27.684599 -157.49345 -32.04863 1.0946361e-38 0 -0.88641894 -0.46288386 0
27.743788 -157.37263 -32.210461 1.3242248e-38 0 -0.80131501 -0.5982427 0
27.822203 -157.21257 -32.364937 1.3242248e-38 0 -0.69443381 -0.71955657 0
27.908289 -157.03685 -32.516296 1.3242248e-38 0 -0.65263438 -0.75767303 0
28.004988 -156.83946 -32.663383 1.3242248e-38 0 -0.59751767 -0.80185574 0
28.113976 -156.61699 -32.8055 1.3242248e-38 0 -0.53833801 -0.84272909 0
28.209972 -156.42104 -32.952232 1.3242248e-38 0 -0.59939146 -0.80045605 0
28.287535 -156.26271 -33.105713 1.0946361e-38 0 -0.69603616 -0.71800679 0
28.356188 -156.12257 -33.262402 1.0946361e-38 0 -0.74537939 -0.66664046 0
28.427261 -155.97749 -33.417961 1.0946361e-38 0 -0.73130929 -0.682046 0
28.515186 -155.79802 -33.566757 8.6504733e-39 0 -0.63824463 -0.76983368 0
28.61652 -155.59117 -33.710033 1.0946361e-38 0 -0.56940782 -0.82205522 0
28.725664 -155.36838 -33.849926 1.0946361e-38 0 -0.53176522 -0.84689176 0
28.86507 -155.08382 -33.977531 6.3545859e-39 0 -0.40917215 -0.91245723 0
28.982342 -154.84444 -34.113445 6.3545859e-39 0 -0.49374178 -0.86960858 0
29.083563 -154.63782 -34.255394 6.3545859e-39 0 -0.56625235 -0.82423192 0
29.176756 -154.44759 -34.400234 4.0586985e-39 0 -0.60578412 -0.79562908 0
29.235527 -154.32762 -34.558636 4.0586985e-39 0 -0.79718065 -0.60374087 0
29.272589 -154.25197 -34.725658 6.3545859e-39 0 -0.91091293 -0.41259876 0
29.297825 -154.20045 -34.897419 6.3545859e-39 0 -0.95784849 -0.28727371 0
29.371382 -154.05031 -35.049442 8.6504733e-39 0 -0.71148503 -0.70270127 0
29.410536 -153.97038 -35.215363 6.3545859e-39 0 -0.90092099 -0.43398312 0
29.42959 -153.93149 -35.389507 6.3545859e-39 0 -0.97595412 -0.21797612 0
29.448196 -153.89351 -35.563847 6.3545859e-39 0 -0.97708404 -0.21285389 0
29.439951 -153.91034 -35.749382 6.3545859e-39 0 -0.99591082 0.090341888 0
29.444908 -153.90022 -35.929523 6.3545859e-39 0 -0.99842685 -0.056070726 0
29.451679 -153.8864 -36.108967 6.3545859e-39 0 -0.99704552 -0.076813199 0
29.45183 -153.88609 -36.291271 8.6504733e-39 0 -0.99999863 -0.0016739881 0
29.455553 -153.87849 -36.47216 8.6504733e-39 0 -0.99911875 -0.04197146 0
29.464813 -153.85959 -36.650753 8.6504733e-39 0 -0.99444354 -0.10527078 0
29.455702 -153.87819 -36.837292 8.6504733e-39 0 -0.99506539 0.099221654 0
29.447546 -153.89484 -37.023552 8.6504733e-39 0 -0.99602968 0.089021921 0
29.445953 -153.89809 -37.207092 8.6504733e-39 0 -0.99984324 0.017705169 0
29.429897 -153.93086 -37.397049 6.3545859e-39 0 -0.98543864 0.1700315 0
29.410948 -153.96954 -37.588428 6.3545859e-39 0 -0.98017961 0.1981108 0
29.412369 -153.96664 -37.77103 6.3545859e-39 0 -0.999874 -0.015874995 0
29.409834 -153.97182 -37.95546 6.3545859e-39 0 -0.99960691 0.028036216 0
29.386106 -154.02025 -38.149426 4.0586985e-39 0 -0.97021317 0.24225277 0
29.332809 -154.12904 -38.356804 4.0586985e-39 0 -0.88553584 0.46457115 0
29.277821 -154.24129 -38.565269 1.762811e-39 0 -0.88048351 0.47407675 0
29.23901 -154.32051 -38.766781 4.0586985e-39 0 -0.93065965 0.36588621 0
29.216002 -154.36748 -38.961399 4.0586985e-39 0 -0.97209394 0.23459211 0
29.215044 -154.36943 -39.146183 1.762811e-39 0 -0.99994409 0.010569186 0
29.191572 -154.41734 -39.341366 4.0586985e-39 0 -0.97116756 0.23839785 0
29.168236 -154.46498 -39.536686 4.0586985e-39 0 -0.97152168 0.23695095 0
29.161852 -154.47801 -39.724384 4.0586985e-39 0 -0.99759871 0.069258541 0
29.131487 -154.53999 -39.923351 4.0586985e-39 0 -0.95474732 0.29741812 0
29.121141 -154.56111 -40.113205 4.0586985e-39 0 -0.99387032 0.11055207 0
29.131487 -154.53999 -40.293514 2.2976811e-38 0 -0.99321097 -0.11632674 0
29.140621 -154.52135 -40.474457 2.2976811e-38 0 -0.9947322 -0.10250777 0
29.138611 -154.52545 -40.660728 2.2976811e-38 0 -0.99975729 0.022030285 0
29.131487 -154.53999 -40.84956 2.2976811e-38 0 -0.99704796 0.076781213 0
29.136629 -154.5295 -41.032665 2.2976811e-38 0 -0.99836051 -0.057239335 0
29.131712 -154.53954 -41.220676 1.762811e-39 0 -0.99857718 0.053326607 0
29.125679 -154.55185 -41.409355 4.0586985e-39 0 -0.99787712 0.065124996 0
29.108479 -154.58696 -41.603573 4.0586985e-39 0 -0.98404938 0.17789544 0
29.090582 -154.62349 -41.798313 6.3545859e-39 0 -0.98285782 0.18436526 0
29.087503 -154.62978 -41.986008 4.0586985e-39 0 -0.9994396 0.033475123 0
29.082764 -154.63945 -42.174637 4.0586985e-39 0 -0.99868745 0.051218882 0
29.050022 -154.70628 -42.37719 4.0586985e-39 0 -0.94964111 0.31333971 0
29.045874 -154.71475 -42.565868 1.762811e-39 0 -0.99899423 0.044838704 0
29.037449 -154.73195 -42.75679 4.0586985e-39 0 -0.99596804 0.089708559 0
29.026909 -154.75346 -42.94891 4.0586985e-39 0 -0.99378783 0.11129129 0
29.022858 -154.76173 -43.137932 4.0586985e-39 0 -0.99904418 0.043711081 0
29.002001 -154.80431 -43.335567 4.0586985e-39 0 -0.97757739 0.21057661 0
28.968304 -154.87309 -43.53989 4.0586985e-39 0 -0.94773418 0.31906095 0
28.946199 -154.91821 -43.73859 4.0586985e-39 0 -0.97517407 0.22143984 0
28.900084 -155.01234 -43.949776 1.762811e-39 0 -0.91337556 0.40711793 0
28.871574 -155.07054 -44.152241 1.762811e-39 0 -0.96108407 0.2762562 0
28.890816 -155.03127 -44.330364 2.2976811e-38 0 -0.976542 -0.21532695 0
28.880753 -155.0518 -44.52367 2.0680923e-38 0 -0.99440306 0.10565312 0
28.884624 -155.0439 -44.709888 2.0680923e-38 0 -0.99910045 -0.042406917 0
28.97308 -154.86334 -44.852112 2.0680923e-38 0 -0.61878133 -0.78556329 0
28.984838 -154.83934 -45.034225 1.8385036e-38 0 -0.99142623 -0.13066724 0
28.978394 -154.85249 -45.225986 1.6089148e-38 0 -0.99765587 0.068430193 0
28.908808 -154.99454 -45.451229 1.3793261e-38 0 -0.84585226 0.53341728 0
28.85314 -155.10817 -45.669525 1.1497374e-38 0 -0.88702005 0.46173096 0
28.85314 -155.10817 -45.858551 1.1497374e-38 0 -1 0 0
28.775196 -155.26727 -46.089394 1.1497374e-38 0 -0.82337677 0.56749511 0
28.757381 -155.30363 -46.288403 1.1497374e-38 0 -0.98371446 0.17973828 0
28.752928 -155.31273 -46.480404 9.2014862e-39 0 -0.99888009 0.04731245 0
28.663853 -155.49455 -46.718414 9.2014862e-39 0 -0.79465461 0.60706192 0
28.463442 -155.90364 -47.780846 9.2014862e-39 0 -0.93320996 0.35933155 0
14.754099 -183.93814 -1.2240893 9.2014862e-39 0 -1 0 0
14.781316 -183.88258 -1.4276975 1.1497374e-38 0 -0.96473044 -0.26323965 0
19.619705 -174.00621 -3.8718808 1.6089148e-38 0 -0.24023065 -0.97071588 0
19.836599 -173.56348 -4.0558615 2.2976811e-38 0 -0.38374135 -0.92344064 0
20.011959 -173.20552 -4.2408786 4.0586985e-39 0 -0.45916343 -0.88835174 0
20.131594 -172.96132 -4.4278936 6.3545859e-39 0 -0.60800922 -0.79392999 0
20.265774 -172.68742 -4.613668 8.6504733e-39 0 -0.56132931 -0.82759249 0
20.386633 -172.44072 -4.7995944 8.6504733e-39 0 -0.60185957 -0.79860198 0
20.520132 -172.16821 -4.9843268 1.0946361e-38 0 -0.56112111 -0.8277337 0
20.633045 -171.93773 -5.1696863 8.6504733e-39 0 -0.62669742 -0.77926272 0
20.738655 -171.72215 -5.3550172 1.0946361e-38 0 -0.65190852 -0.75829756 0
20.858557 -171.4774 -5.5390396 1.0946361e-38 0 -0.6009593 -0.79927963 0
20.956602 -171.27727 -5.723959 6.3545859e-39 0 -0.67863673 -0.73447406 0
21.0499 -171.08682 -5.9087901 8.6504733e-39 0 -0.69645119 -0.71760422 0
21.142921 -170.89694 -6.0932703 1.3242248e-38 0 -0.69683421 -0.71723223 0
21.176918 -170.82755 -6.2814808 1.0946361e-38 0 -0.93825209 -0.34595233 0
21.250183 -170.67799 -6.4667444 1.3242248e-38 0 -0.77811486 -0.62812197 0
21.30476 -170.56659 -6.6530957 1.7834023e-38 0 -0.85831755 -0.51311886 0
21.366415 -170.44073 -6.838697 1.5538135e-38 0 -0.8276605 -0.56122899 0
21.453405 -170.26317 -7.0220785 1.5538135e-38 0 -0.71840537 -0.69562471 0
21.535265 -170.09607 -7.2055221 1.3242248e-38 0 -0.73927349 -0.67340529 0
21.674858 -169.81113 -7.3838954 4.0586985e-39 0 -0.53060675 -0.84761816 0
21.773388 -169.61 -7.5651655 8.6504733e-39 0 -0.66948819 -0.74282265 0
21.839977 -169.47408 -7.7488055 4.0586985e-39 0 -0.80377555 -0.59493262 0
21.919962 -169.31081 -7.9309945 1.3242248e-38 0 -0.74471736 -0.66738003 0
21.946291 -169.25706 -8.1177254 1.3242248e-38 0 -0.96099228 -0.27657518 0
21.954079 -169.24117 -8.3060827 1.0946361e-38 0 -0.99645627 -0.084113061 0
21.965815 -169.21721 -8.4940529 8.6504733e-39 0 -0.99197626 -0.12642474 0
22.07748 -168.98927 -8.6723213 1.5538135e-38 0 -0.61605942 -0.7876997 0
22.126593 -168.88902 -8.856329 1.0946361e-38 0 -0.87813127 -0.47841966 0
22.213125 -168.71239 -9.036376 6.3545859e-39 0 -0.71383685 -0.70031202 0
22.313652 -168.50719 -9.2146416 8.6504733e-39 0 -0.65582377 -0.75491393 0
22.393801 -168.34358 -9.3946609 1.3242248e-38 0 -0.74004078 -0.67256194 0
22.486584 -168.15419 -9.5730085 1.5538135e-38 0 -0.68556076 -0.72801542 0
22.583433 -167.9565 -9.7505474 1.3242248e-38 0 -0.66816443 -0.74401367 0
22.67016 -167.77946 -9.9288359 1.0946361e-38 0 -0.70960188 -0.7046029 0
22.74222 -167.63237 -10.108448 6.3545859e-39 0 -0.7736631 -0.6335972 0
22.793755 -167.52718 -10.290154 1.3242248e-38 0 -0.86543417 -0.5010227 0
22.843002 -167.42665 -10.471938 1.3242248e-38 0 -0.87510908 -0.4839257 0
22.870316 -167.3709 -10.656164 1.3242248e-38 0 -0.95712596 -0.28967214 0
22.923346 -167.26265 -10.837173 1.3242248e-38 0 -0.85824329 -0.51324308 0
22.978542 -167.14998 -11.017726 1.5538135e-38 0 -0.84836769 -0.52940756 0
23.035458 -167.0338 -11.197855 2.012991e-38 0 -0.8403644 -0.54202187 0
23.083448 -166.93584 -11.378915 1.7834023e-38 0 -0.87952101 -0.47586 0
23.112848 -166.87582 -11.562213 1.5538135e-38 0 -0.95035982 -0.31115305 0
23.156452 -166.78682 -11.743546 1.7834023e-38 0 -0.89769459 -0.44061828 0
23.178967 -166.74086 -11.927552 1.7834023e-38 0 -0.97019458 -0.24232739 0
23.295715 -166.50255 -12.098668 2.012991e-38 0 -0.58325237 -0.81229109 0
23.422705 -166.24333 -12.26792 8.6504733e-39 0 -0.5467149 -0.83731884 0
23.508295 -166.06862 -12.442479 1.3242248e-38 0 -0.70679587 -0.70741761 0
23.595337 -165.89095 -12.616514 1.3242248e-38 0 -0.69975466 -0.71438324 0
23.715912 -165.64482 -12.785379 1.3242248e-38 0 -0.56574321 -0.8245815 0
23.776573 -165.521 -12.96254 1.3242248e-38 0 -0.81963849 -0.57288128 0
23.855011 -165.36089 -13.136847 1.0946361e-38 0 -0.73646098 -0.67648005 0
23.895107 -165.27904 -13.316624 8.6504733e-39 0 -0.91011602 -0.41435361 0
23.95962 -165.14735 -13.492544 1.5538135e-38 0 -0.80056107 -0.59925121 0
24.007849 -165.0489 -13.670747 2.012991e-38 0 -0.87530535 -0.48357064 0
24.090195 -164.88081 -13.843444 1.5538135e-38 0 -0.71659893 -0.69748551 0
24.116449 -164.82722 -14.024727 1.7834023e-38 0 -0.95897752 -0.28348228 0
24.177656 -164.70229 -14.200328 2.2425798e-38 0 -0.81480819 -0.57973069 0
24.212019 -164.63214 -14.380072 2.012991e-38 0 -0.93157637 -0.36354586 0
24.256901 -164.54053 -14.557974 2.012991e-38 0 -0.8890413 -0.45782691 0
24.293118 -164.4666 -14.73717 2.012991e-38 0 -0.92441976 -0.38137648 0
24.328402 -164.39458 -14.916409 2.012991e-38 0 -0.927894 -0.37284407 0
24.384405 -164.28026 -15.091999 1.2117981e-39 0 -0.8380385 -0.54561102 0
24.450516 -164.14531 -15.265647 1.3242248e-38 0 -0.7895962 -0.61362684 0
24.516701 -164.01021 -15.439045 1.3242248e-38 0 -0.78883123 -0.6146099 0
24.536989 -163.9688 -15.62033 1.7834023e-38 0 -0.97488683 -0.22270115 0
24.554825 -163.93239 -15.802017 1.7834023e-38 0 -0.98050797 -0.19647935 0
24.589264 -163.86209 -15.980656 1.7834023e-38 0 -0.93054247 -0.36618412 0
24.626856 -163.78535 -16.158611 2.012991e-38 0 -0.91826516 -0.39596617 0
24.68775 -163.66106 -16.332134 2.2425798e-38 0 -0.81295025 -0.58233315 0
24.739634 -163.55515 -16.507133 1.7834023e-38 0 -0.85552031 -0.51776928 0
24.845266 -163.33952 -16.671782 1.7834023e-38 0 -0.60689336 -0.79478329 0
24.891029 -163.24611 -16.847492 1.7834023e-38 0 -0.88297403 -0.46942171 0
24.903439 -163.22078 -17.02951 1.7834023e-38 0 -0.99045575 -0.13783142 0
24.93059 -163.16536 -17.208633 2.012991e-38 0 -0.95532036 -0.29557234 0
24.958426 -163.10854 -17.387556 1.7834023e-38 0 -0.95308912 -0.30268991 0
24.977564 -163.06947 -17.568138 2.012991e-38 0 -0.97739434 -0.21142448 0
25.040174 -162.94167 -17.739914 2.2425798e-38 0 -0.80229038 -0.59693402 0
25.094669 -162.83043 -17.913134 1.5538135e-38 0 -0.84144115 -0.54034871 0
25.140507 -162.73686 -18.087952 2.012991e-38 0 -0.88165969 -0.47188586 0
25.165998 -162.68483 -18.26685 2.012991e-38 0 -0.9602105 -0.27927738 0
25.206827 -162.60149 -18.442472 2.012991e-38 0 -0.90343171 -0.42873198 0
25.252398 -162.50847 -18.616962 1.7834023e-38 0 -0.88244474 -0.47041598 0
25.271593 -162.46928 -18.796953 2.012991e-38 0 -0.97711307 -0.21272066 0
25.297636 -162.41612 -18.975441 1.7834023e-38 0 -0.95839298 -0.28545216 0
25.306353 -162.39833 -19.157637 2.012991e-38 0 -0.9952659 -0.097189583 0
25.327374 -162.35542 -19.337137 2.2425798e-38 0 -0.97259891 -0.23248948 0
25.393641 -162.22015 -19.506542 1.2117981e-39 0 -0.78144187 -0.62397808 0
25.531462 -161.93883 -19.659683 8.6504733e-39 0 -0.4781068 -0.87830168 0
25.54677 -161.90758 -19.840021 1.3242248e-38 0 -0.98531586 -0.17074126 0
25.573097 -161.85384 -20.01783 1.3242248e-38 0 -0.95723337 -0.2893171 0
25.602804 -161.7932 -20.194799 1.3242248e-38 0 -0.94600636 -0.32414809 0
25.608665 -161.78123 -20.377237 1.5538135e-38 0 -0.99785703 -0.065431878 0
25.634634 -161.72823 -20.554995 1.5538135e-38 0 -0.95829707 -0.28577399 0
25.660461 -161.67551 -20.732719 1.7834023e-38 0 -0.95871007 -0.28438538 0
25.68009 -161.63544 -20.911867 1.7834023e-38 0 -0.97588742 -0.21827461 0
25.711157 -161.57202 -21.088234 1.5538135e-38 0 -0.94101745 -0.33835799 0
25.727633 -161.53839 -21.26807 1.7834023e-38 0 -0.9829601 -0.18381894 0
25.786957 -161.4173 -21.437395 1.5538135e-38 0 -0.81339842 -0.581707 0
25.878065 -161.23132 -21.598688 1.3242248e-38 0 -0.65519834 -0.75545686 0
25.894913 -161.19693 -21.778135 1.7834023e-38 0 -0.98212373 -0.18823639 0
25.959806 -161.06447 -21.945518 1.3242248e-38 0 -0.7841602 -0.62055856 0
25.986986 -161.00899 -22.122232 1.3242248e-38 0 -0.95408285 -0.29954302 0
25.977596 -161.02815 -22.308201 2.012991e-38 0 -0.99473172 0.10251243 0
26.016153 -160.94945 -22.481939 1.5538135e-38 0 -0.9108935 -0.41264158 0
26.046339 -160.88783 -22.657743 1.7834023e-38 0 -0.94371843 -0.3307499 0
26.091997 -160.79463 -22.829441 1.5538135e-38 0 -0.87886757 -0.4770658 0
26.138374 -160.69997 -23.000818 2.2425798e-38 0 -0.87533432 -0.48351818 0
26.185369 -160.60403 -23.171896 1.2117981e-39 0 -0.87222666 -0.48910198 0
26.214113 -160.54536 -23.347717 3.5076855e-39 0 -0.94858134 -0.31653336 0
26.214231 -160.54512 -23.531181 1.2117981e-39 0 -0.99999911 -0.0013307261 0
26.232203 -160.50844 -23.709867 1.2117981e-39 0 -0.97957188 -0.20109439 0
26.25107 -160.46992 -23.888287 2.2425798e-38 0 -0.97748643 -0.21099821 0
26.287832 -160.39488 -24.061752 1.2117981e-39 0 -0.91779822 -0.39704716 0
26.328783 -160.31129 -24.233969 1.2117981e-39 0 -0.89963198 -0.43664896 0
26.36837 -160.23048 -24.406452 2.2425798e-38 0 -0.90554178 -0.4242571 0
26.416145 -160.13297 -24.57653 2.2425798e-38 0 -0.86751419 -0.49741241 0
26.447594 -160.06877 -24.751104 1.2117981e-39 0 -0.93855739 -0.34512314 0
26.472187 -160.01857 -24.927568 2.2425798e-38 0 -0.96183562 -0.273628 0
26.492399 -159.97731 -25.105255 2.2425798e-38 0 -0.97408378 -0.22618727 0
26.519714 -159.92155 -25.280861 2.012991e-38 0 -0.95311213 -0.30261734 0
26.639332 -159.67738 -25.429476 1.2117981e-39 0 -0.5199188 -0.85421574 0
26.678473 -159.59749 -25.601315 2.012991e-38 0 -0.90678155 -0.42160064 0
26.714518 -159.52391 -25.773972 2.2425798e-38 0 -0.91994947 -0.39203697 0
26.766769 -159.41725 -25.941713 2.2425798e-38 0 -0.84385705 -0.53656816 0
26.825047 -159.29829 -26.107498 2.012991e-38 0 -0.81248039 -0.5829885 0
26.882635 -159.18074 -26.273321 1.7834023e-38 0 -0.81580216 -0.57833099 0
26.901443 -159.14235 -26.45076 2.012991e-38 0 -0.97738457 -0.21146952 0
26.913523 -159.11769 -26.630245 1.2117981e-39 0 -0.99069452 -0.13610442 0
26.902063 -159.14108 -26.817001 2.012991e-38 0 -0.99224699 0.12428168 0
26.902924 -159.13933 -27.000048 2.012991e-38 0 -0.9999541 -0.0095859887 0
26.906324 -159.13239 -27.182365 2.012991e-38 0 -0.99927574 -0.038052913 0
26.920849 -159.10274 -27.361237 2.012991e-38 0 -0.98654026 -0.16351868 0
26.944262 -159.05495 -27.537308 2.012991e-38 0 -0.96508151 -0.26194951 0
26.984089 -158.97365 -27.708117 2.012991e-38 0 -0.90293992 -0.42976683 0
26.997133 -158.94702 -27.887419 2.012991e-38 0 -0.98915279 -0.14689034 0
27.006851 -158.92719 -28.067806 2.012991e-38 0 -0.994008 -0.10930672 0
27.02018 -158.89998 -28.247053 2.012991e-38 0 -0.98867643 -0.15006311 0
27.064112 -158.8103 -28.416327 1.5538135e-38 0 -0.88365716 -0.46813476 0
27.093519 -158.75027 -28.590254 1.5538135e-38 0 -0.94528389 -0.32624879 0
27.126192 -158.68358 -28.763048 1.7834023e-38 0 -0.93291652 -0.36009255 0
27.153343 -158.62816 -28.937616 1.7834023e-38 0 -0.95312196 -0.30258635 0
27.206551 -158.51955 -29.10342 1.7834023e-38 0 -0.83650297 -0.54796243 0
27.238157 -158.45503 -29.276354 1.7834023e-38 0 -0.93692619 -0.3495273 0
27.255424 -158.41978 -29.454094 2.012991e-38 0 -0.98089802 -0.1945228 0
27.289541 -158.35014 -29.626093 1.7834023e-38 0 -0.92690468 -0.37529686 0
27.291395 -158.34636 -29.809093 1.7834023e-38 0 -0.99978632 -0.020674095 0
27.283457 -158.36256 -29.995554 1.7834023e-38 0 -0.99624485 0.086581245 0
27.273634 -158.38261 -30.182768 1.7834023e-38 0 -0.99431396 0.10648806 0
27.271967 -158.38602 -30.367249 1.7834023e-38 0 -0.99982995 0.018441668 0
27.288361 -158.35255 -30.545465 1.5538135e-38 0 -0.98282534 -0.18453811 0
27.321302 -158.28531 -30.717825 1.5538135e-38 0 -0.93160826 -0.36346391 0
27.35643 -158.21361 -30.889355 1.5538135e-38 0 -0.92263651 -0.38567069 0
27.405811 -158.11281 -31.055717 1.3242248e-38 0 -0.85525787 -0.5182026 0
27.45875 -158.00475 -31.220671 1.5538135e-38 0 -0.83648455 -0.54799056 0
27.514664 -157.89061 -31.384409 1.3242248e-38 0 -0.82036257 -0.57184368 0
27.58005 -157.75714 -31.544556 1.5538135e-38 0 -0.7681905 -0.6402213 0
27.634972 -157.64503 -31.70834 1.3242248e-38 0 -0.82520491 -0.5648334 0
27.698427 -157.5155 -31.868834 1.3242248e-38 0 -0.77817285 -0.62805009 0
27.737709 -157.43532 -32.038094 1.3242248e-38 0 -0.90371901 -0.42812622 0
27.798834 -157.31055 -32.19915 1.3242248e-38 0 -0.79052836 -0.61242539 0
27.860796 -157.18407 -32.359718 1.3242248e-38 0 -0.7855587 -0.61878705 0
27.963028 -156.97539 -32.504982 1.3242248e-38 0 -0.57131767 -0.82072902 0
28.062 -156.77336 -32.651154 1.0946361e-38 0 -0.58618516 -0.81017715 0
28.136961 -156.62035 -32.806126 8.6504733e-39 0 -0.71158528 -0.70259964 0
28.204388 -156.48271 -32.963757 8.6504733e-39 0 -0.75326961 -0.6577118 0
28.269466 -156.34987 -33.122086 6.3545859e-39 0 -0.76607019 -0.64275694 0
28.311537 -156.26399 -33.289108 6.3545859e-39 0 -0.88933313 -0.45725989 0
28.372108 -156.14035 -33.448872 6.3545859e-39 0 -0.79083335 -0.61203152 0
28.466408 -155.94786 -33.595329 6.3545859e-39 0 -0.60551703 -0.79583234 0
28.585131 -155.70552 -33.731945 6.3545859e-39 0 -0.49107876 -0.87111527 0
28.725739 -155.4185 -33.859577 8.6504733e-39 0 -0.40632099 -0.91373038 0
28.84923 -155.16643 -33.993507 8.6504733e-39 0 -0.46919692 -0.88309354 0
28.945107 -154.97072 -34.137985 6.3545859e-39 0 -0.59392095 -0.80452341 0
29.024433 -154.80879 -34.288776 8.6504733e-39 0 -0.6814965 -0.7318213 0
29.092682 -154.66948 -34.443764 6.3545859e-39 0 -0.74371362 -0.6684984 0
29.148058 -154.55644 -34.603745 6.3545859e-39 0 -0.81670439 -0.57705623 0
29.165865 -154.5201 -34.778786 6.3545859e-39 0 -0.97911477 -0.20330831 0
29.193747 -154.46318 -34.949745 6.3545859e-39 0 -0.94880176 -0.31587207 0
29.26536 -154.317 -35.102802 8.6504733e-39 0 -0.72316855 -0.69067162 0
29.296322 -154.2538 -35.272358 1.0946361e-38 0 -0.93702042 -0.34927455 0
29.333115 -154.1787 -35.439468 1.0946361e-38 0 -0.9121173 -0.40992916 0
29.365377 -154.11284 -35.608391 1.0946361e-38 0 -0.93169713 -0.36323607 0
29.40966 -154.02245 -35.772266 8.6504733e-39 0 -0.87562525 -0.48299113 0
29.434507 -153.97173 -35.944191 8.6504733e-39 0 -0.95913237 -0.28295776 0
29.463812 -153.91191 -36.114227 6.3545859e-39 0 -0.94333524 -0.33184135 0
29.47921 -153.88048 -36.290112 6.3545859e-39 0 -0.98440313 -0.17592734 0
29.501097 -153.8358 -36.463268 8.6504733e-39 0 -0.96828794 -0.24983673 0
29.538458 -153.75954 -36.629822 6.3545859e-39 0 -0.90921688 -0.41632268 0
29.551479 -153.73296 -36.806751 1.0946361e-38 0 -0.98890245 -0.14856671 0
29.549656 -153.73668 -36.990128 1.0946361e-38 0 -0.99979395 0.020299118 0
29.5683 -153.69862 -37.164738 1.0946361e-38 0 -0.97706395 -0.21294628 0
29.571634 -153.69182 -37.346035 1.0946361e-38 0 -0.99929619 -0.037510928 0
29.536373 -153.76379 -37.5443 8.6504733e-39 0 -0.93997711 0.34123769 0
29.501785 -153.8344 -37.742519 8.6504733e-39 0 -0.94202787 0.33553466 0
29.476728 -153.88554 -37.936775 6.3545859e-39 0 -0.96704084 0.25462136 0
29.460447 -153.91878 -38.127338 4.0586985e-39 0 -0.98513114 0.17180388 0
29.457607 -153.92458 -38.312073 4.0586985e-39 0 -0.99950778 0.031372 0
29.446199 -153.94786 -38.500755 1.762811e-39 0 -0.99247122 0.12247875 0
29.432901 -153.97501 -38.690441 1.762811e-39 0 -0.98991477 0.14166382 0
29.41407 -154.01344 -38.882793 4.0586985e-39 0 -0.98061359 0.19595158 0
29.371447 -154.10045 -39.086166 6.3545859e-39 0 -0.91939729 0.39333022 0
29.32795 -154.18924 -39.290218 6.3545859e-39 0 -0.91695064 0.39900064 0
29.280489 -154.28612 -39.496391 8.6504733e-39 0 -0.90506297 0.42527762 0
29.240705 -154.36732 -39.699326 8.6504733e-39 0 -0.9284237 0.37152305 0
29.183468 -154.48416 -39.910645 6.3545859e-39 0 -0.87514508 0.48386064 0
29.12295 -154.6077 -40.123856 4.0586985e-39 0 -0.86525524 0.50133157 0
29.122389 -154.60884 -40.309326 1.762811e-39 0 -0.99998087 0.0061701825 0
29.202776 -154.44475 -40.456783 2.2976811e-38 0 -0.66839707 -0.74380463 0
29.321064 -154.20329 -40.586105 1.8385036e-38 0 -0.47213945 -0.88152385 0
29.31595 -154.21373 -40.773636 2.0680923e-38 0 -0.99845481 0.055569008 0
29.280161 -154.28679 -40.975922 2.0680923e-38 0 -0.94053692 0.33969155 0
29.199652 -154.45113 -41.199909 1.762811e-39 0 -0.80626833 0.59154993 0
29.152693 -154.54698 -41.408207 4.0586985e-39 0 -0.90842623 0.4180451 0
29.123106 -154.60738 -41.608418 1.762811e-39 0 -0.95738935 0.28880018 0
29.100441 -154.65364 -41.805496 1.762811e-39 0 -0.9735347 0.22853936 0
29.069433 -154.71693 -42.006863 1.762811e-39 0 -0.95398444 0.29985622 0
29.046366 -154.76402 -42.204582 2.2976811e-38 0 -0.97279239 0.2316789 0
29.026272 -154.80504 -42.401039 2.2976811e-38 0 -0.97889364 0.20437019 0
29.012794 -154.83255 -42.59444 1.762811e-39 0 -0.99003327 0.14083354 0
29.003458 -154.85161 -42.785938 1.762811e-39 0 -0.99508423 0.099032685 0
28.997028 -154.86473 -42.976135 1.762811e-39 0 -0.99762833 0.06883093 0
28.99386 -154.8712 -43.164841 1.762811e-39 0 -0.99941278 0.034264658 0
29.002987 -154.85257 -43.347485 1.762811e-39 0 -0.99483752 -0.10148054 0
29.022341 -154.81306 -43.525009 1.762811e-39 0 -0.97612286 -0.21721916 0
29.038151 -154.78079 -43.70438 1.762811e-39 0 -0.98419708 -0.17707635 0
29.042328 -154.77226 -43.889732 2.2976811e-38 0 -0.99894279 -0.045969997 0
29.02527 -154.80708 -44.086063 2.2976811e-38 0 -0.98463398 0.1746311 0
29.033642 -154.78999 -44.269501 2.0680923e-38 0 -0.9956882 -0.092762768 0
28.954203 -154.95215 -44.498413 2.2976811e-38 0 -0.81600952 0.57803845 0
28.911961 -155.03838 -44.708485 2.0680923e-38 0 -0.92510021 0.37972298 0
28.946451 -154.96797 -44.878841 2.2976811e-38 0 -0.92418617 -0.3819423 0
28.916739 -155.02863 -45.08279 2.2976811e-38 0 -0.9585104 0.28505751 0
28.911169 -155.03999 -45.274288 2.2976811e-38 0 -0.99824274 0.059258234 0
28.872507 -155.11891 -45.483418 2.0680923e-38 0 -0.93559915 0.35306403 0
28.733027 -155.40363 -45.746357 1.6089148e-38 0 -0.67845672 0.73464042 0
28.042713 -156.81273 -49.76157 9.2014862e-39 0 -0.9435811 0.33114141 0
27.987045 -156.92636 -49.98703 1.1497374e-38 0 -0.89299333 0.45006996 0
27.987045 -156.92636 -50.180573 1.1497374e-38 0 -1 0 0
27.959499 -156.98259 -50.390312 1.3793261e-38 0 -0.96589237 0.25894389 0
27.931377 -157.03999 -50.600639 1.3793261e-38 0 -0.96471536 0.26329505 0
27.875702 -157.15364 -50.827404 1.1497374e-38 0 -0.8940087 0.44804958 0
27.875702 -157.15364 -51.021751 1.1497374e-38 0 -1 0 0
27.797766 -157.31273 -51.262363 9.2014862e-39 0 -0.83415616 0.55152833 0
19.759089 -173.77197 -3.673594 9.2014862e-39 0 -1 0 0
19.874977 -173.53542 -3.8620772 2.0680923e-38 0 -0.62315696 -0.78209686 0
19.954117 -173.37387 -4.0517182 2.2976811e-38 0 -0.76124567 -0.64846355 0
20.066418 -173.14464 -4.2394857 1.762811e-39 0 -0.63366914 -0.77360421 0
20.182926 -172.90681 -4.4265904 4.0586985e-39 0 -0.61831874 -0.78592741 0
20.291578 -172.68503 -4.6136084 4.0586985e-39 0 -0.64464051 -0.7644859 0
20.441628 -172.37874 -4.7979856 6.3545859e-39 0 -0.51573622 -0.85674745 0
20.590183 -172.0755 -4.9818263 8.6504733e-39 0 -0.51842588 -0.85512257 0
20.685896 -171.88013 -5.1680741 1.0946361e-38 0 -0.69000047 -0.72380888 0
20.768101 -171.71233 -5.354732 1.3242248e-38 0 -0.74367285 -0.66854376 0
20.846052 -171.55321 -5.5413179 8.6504733e-39 0 -0.76089066 -0.64888018 0
20.940329 -171.36076 -5.7265534 1.3242248e-38 0 -0.69348472 -0.72047132 0
21.094976 -171.04509 -5.9074512 8.6504733e-39 0 -0.49720082 -0.86763555 0
21.269432 -170.68898 -6.0863853 6.3545859e-39 0 -0.44897774 -0.89354289 0
21.403008 -170.41632 -6.2674451 1.0946361e-38 0 -0.55319107 -0.83305436 0
21.497368 -170.22371 -6.4507751 1.0946361e-38 0 -0.68943894 -0.72434384 0
21.559881 -170.0961 -6.6360755 1.0946361e-38 0 -0.82359505 -0.56717837 0
21.604464 -170.0051 -6.8224907 1.0946361e-38 0 -0.898637 -0.43869299 0
21.652313 -169.90742 -7.0084805 8.6504733e-39 0 -0.88534528 -0.46493402 0
21.729696 -169.74947 -7.1919198 1.3242248e-38 0 -0.75777411 -0.65251702 0
21.763784 -169.67989 -7.3786116 1.0946361e-38 0 -0.93703574 -0.34923351 0
21.853979 -169.49577 -7.5604506 6.3545859e-39 0 -0.70270014 -0.7114861 0
21.939487 -169.32123 -7.7423415 1.3242248e-38 0 -0.72152615 -0.69238722 0
22.02845 -169.13963 -7.9235811 1.3242248e-38 0 -0.7064141 -0.70779872 0
22.106552 -168.98021 -8.1054525 1.0946361e-38 0 -0.75198966 -0.65917492 0
22.177687 -168.83501 -8.2876616 1.3242248e-38 0 -0.78204948 -0.62321639 0
22.225199 -168.73802 -8.4718275 1.3242248e-38 0 -0.88480842 -0.46595487 0
22.323257 -168.53786 -8.6509295 8.6504733e-39 0 -0.66680956 -0.74522811 0
22.376736 -168.4287 -8.8340445 1.0946361e-38 0 -0.85895389 -0.51205301 0
22.421482 -168.33736 -9.0178394 1.0946361e-38 0 -0.89551282 -0.44503579 0
22.468771 -168.24083 -9.2012062 1.0946361e-38 0 -0.88488191 -0.46581548 0
22.529604 -168.11665 -9.3829851 1.762811e-39 0 -0.82572836 -0.56406796 0
22.584517 -168.00456 -9.5651569 1.3242248e-38 0 -0.85168892 -0.52404767 0
22.632223 -167.90718 -9.7479105 8.6504733e-39 0 -0.88252729 -0.47026122 0
22.678652 -167.81241 -9.9306307 8.6504733e-39 0 -0.88769782 -0.46042642 0
22.710983 -167.74641 -10.114779 1.5538135e-38 0 -0.94137347 -0.33736616 0
22.76618 -167.63374 -10.296176 1.0946361e-38 0 -0.84947354 -0.52763116 0
22.82634 -167.51094 -10.476788 1.7834023e-38 0 -0.82695448 -0.56226879 0
22.90406 -167.35229 -10.655075 1.5538135e-38 0 -0.74706 -0.66475666 0
23.003473 -167.14937 -10.830426 1.3242248e-38 0 -0.65382552 -0.75664526 0
23.042149 -167.07042 -11.012907 1.5538135e-38 0 -0.91778678 -0.39707366 0
23.129377 -166.89236 -11.189144 1.5538135e-38 0 -0.70346969 -0.71072531 0
23.164974 -166.8197 -11.371643 2.2425798e-38 0 -0.92906743 -0.36991027 0
23.168921 -166.81165 -11.558129 1.5538135e-38 0 -0.99906808 -0.04316207 0
23.136934 -166.87694 -11.749373 8.6504733e-39 0 -0.94636577 0.32309726 0
23.243292 -166.65984 -11.922234 8.6504733e-39 0 -0.62288839 -0.78231072 0
23.323172 -166.49678 -12.098284 1.0946361e-38 0 -0.73366511 -0.67951119 0
23.439037 -166.26027 -12.269066 2.012991e-38 0 -0.58541942 -0.81073058 0
23.528128 -166.07841 -12.443151 1.5538135e-38 0 -0.69150704 -0.72236973 0
23.634171 -165.86195 -12.614495 2.2425798e-38 0 -0.62065768 -0.7840817 0
23.716375 -165.69415 -12.788862 1.0946361e-38 0 -0.72054321 -0.69341004 0
23.838812 -165.44423 -12.957041 1.5538135e-38 0 -0.55828649 -0.8296482 0
23.922894 -165.2726 -13.130434 1.3242248e-38 0 -0.71070939 -0.70348567 0
23.959566 -165.19774 -13.310636 1.5538135e-38 0 -0.92348462 -0.38363552 0
23.980274 -165.15547 -13.493151 1.5538135e-38 0 -0.97421789 -0.22560932 0
24.010422 -165.09393 -13.674154 2.012991e-38 0 -0.94677675 -0.32189092 0
24.044075 -165.02524 -13.854516 2.2425798e-38 0 -0.9345122 -0.35593122 0
24.077908 -164.95618 -14.034743 2.012991e-38 0 -0.93379086 -0.35781926 0
24.12746 -164.85503 -14.212345 1.2117981e-39 0 -0.86895084 -0.49489823 0
24.180923 -164.7459 -14.389136 1.7834023e-38 0 -0.85093504 -0.52527094 0
24.26943 -164.56523 -14.559966 1.7834023e-38 0 -0.6870541 -0.72660625 0
24.337162 -164.42697 -14.733932 1.5538135e-38 0 -0.78286785 -0.62218803 0
24.376287 -164.34711 -14.912483 1.7834023e-38 0 -0.91284478 -0.40830696 0
24.417379 -164.26323 -15.090573 1.7834023e-38 0 -0.90468079 -0.42609006 0
24.467224 -164.16148 -15.267017 2.012991e-38 0 -0.86628979 -0.49954179 0
24.496855 -164.101 -15.446826 2.2425798e-38 0 -0.94781053 -0.3188341 0
24.538656 -164.01567 -15.624396 2.2425798e-38 0 -0.9013381 -0.43311629 0
24.590565 -163.90971 -15.80003 1.7834023e-38 0 -0.85624945 -0.51656252 0
24.667469 -163.75273 -15.970953 1.7834023e-38 0 -0.7365039 -0.67643327 0
24.736616 -163.61159 -16.143019 1.5538135e-38 0 -0.77315789 -0.63421369 0
24.812258 -163.45718 -16.313635 1.5538135e-38 0 -0.74145645 -0.67100102 0
24.855471 -163.36897 -16.490055 1.7834023e-38 0 -0.89442527 -0.44721749 0
24.880453 -163.31798 -16.669783 1.7834023e-38 0 -0.96202552 -0.27295965 0
24.894028 -163.29027 -16.851631 2.012991e-38 0 -0.98858863 -0.15064049 0
24.919743 -163.23778 -17.031118 2.012991e-38 0 -0.95979881 -0.28068885 0
24.965672 -163.14403 -17.206593 1.2117981e-39 0 -0.88201088 -0.47122902 0
25.020943 -163.0312 -17.380072 1.2117981e-39 0 -0.83830649 -0.54519922 0
25.075691 -162.91945 -17.553471 1.2117981e-39 0 -0.84055036 -0.54173344 0
25.132629 -162.80322 -17.726242 1.2117981e-39 0 -0.82972628 -0.5581705 0
25.169168 -162.72864 -17.902977 3.5076855e-39 0 -0.92131764 -0.38881075 0
25.177204 -162.71223 -18.085468 3.5076855e-39 0 -0.99598467 -0.089523904 0
25.191849 -162.68234 -18.266596 3.5076855e-39 0 -0.9866541 -0.16283019 0
25.209139 -162.64705 -18.447155 3.5076855e-39 0 -0.9814266 -0.19183773 0
25.238972 -162.58615 -18.625027 2.2425798e-38 0 -0.94608742 -0.32391137 0
25.259798 -162.54364 -18.804749 2.012991e-38 0 -0.97314668 -0.23018587 0
25.292023 -162.47786 -18.981974 2.012991e-38 0 -0.93750435 -0.34797347 0
25.311653 -162.43779 -19.161854 2.012991e-38 0 -0.97607636 -0.21742794 0
25.343168 -162.37346 -19.339081 2.012991e-38 0 -0.93998939 -0.34120366 0
25.383011 -162.29213 -19.514378 2.012991e-38 0 -0.90712446 -0.42086247 0
25.428415 -162.19945 -19.688307 1.7834023e-38 0 -0.88252223 -0.47027075 0
25.489788 -162.07417 -19.858486 2.012991e-38 0 -0.80532843 -0.59282887 0
25.537165 -161.97746 -20.031656 2.012991e-38 0 -0.87307513 -0.48758578 0
25.585785 -161.87822 -20.204393 1.7834023e-38 0 -0.86708122 -0.49816671 0
25.620171 -161.80803 -20.380289 1.2117981e-39 0 -0.92878193 -0.37062651 0
25.594292 -161.86086 -20.57023 2.2425798e-38 0 -0.96343362 0.26794723 0
25.591839 -161.86586 -20.754782 2.2425798e-38 0 -0.99963254 0.027109239 0
25.668041 -161.71031 -20.920622 1.7834023e-38 0 -0.72937709 -0.68411189 0
25.759434 -161.52376 -21.082544 2.012991e-38 0 -0.65549064 -0.75520331 0
25.849316 -161.34029 -21.244518 1.5538135e-38 0 -0.6618219 -0.74966115 0
25.916443 -161.20326 -21.411741 2.012991e-38 0 -0.7734921 -0.63380599 0
25.970608 -161.0927 -21.581936 2.012991e-38 0 -0.83858168 -0.54477596 0
26.026253 -160.97911 -21.751595 2.012991e-38 0 -0.83096218 -0.55632895 0
26.058523 -160.91324 -21.926941 1.5538135e-38 0 -0.93612313 -0.35167241 0
26.071524 -160.8867 -22.107086 1.5538135e-38 0 -0.98932505 -0.14572558 0
26.077265 -160.87498 -22.28907 1.5538135e-38 0 -0.99793309 -0.064261317 0
26.051228 -160.92813 -22.479258 1.7834023e-38 0 -0.96310341 0.26913154 0
26.05344 -160.92361 -22.662289 2.012991e-38 0 -0.99969566 -0.024669182 0
26.097185 -160.83432 -22.83452 1.2117981e-39 0 -0.88777745 -0.46027297 0
26.115776 -160.79637 -23.013248 1.2117981e-39 0 -0.97819352 -0.20769583 0
26.154873 -160.71657 -23.186518 2.2425798e-38 0 -0.90829211 -0.41833651 0
26.186665 -160.65167 -23.361635 2.2425798e-38 0 -0.93768364 -0.34748998 0
26.270006 -160.48155 -23.522795 2.012991e-38 0 -0.68772882 -0.72596765 0
26.314842 -160.39003 -23.694126 2.2425798e-38 0 -0.88204175 -0.47117114 0
26.356844 -160.30429 -23.866102 2.012991e-38 0 -0.89494467 -0.44617707 0
26.386835 -160.24307 -24.041267 2.012991e-38 0 -0.94400877 -0.32992047 0
26.415764 -160.18402 -24.216663 2.012991e-38 0 -0.94772881 -0.31907701 0
26.406322 -160.20329 -24.402731 1.5538135e-38 0 -0.99467897 0.10302334 0
26.452759 -160.10851 -24.573156 1.3242248e-38 0 -0.87392461 -0.48606139 0
26.513758 -159.98399 -24.739325 1.3242248e-38 0 -0.80026448 -0.59964722 0
26.538738 -159.933 -24.91559 1.3242248e-38 0 -0.96060705 -0.27791017 0
26.586424 -159.83566 -25.085287 1.0946361e-38 0 -0.86743563 -0.49754947 0
26.579659 -159.84947 -25.270628 1.5538135e-38 0 -0.99723583 0.074301109 0
26.700054 -159.60371 -25.418949 2.2425798e-38 0 -0.5167132 -0.85615855 0
26.692377 -159.61938 -25.604467 1.2117981e-39 0 -0.99645132 0.084170505 0
26.697916 -159.60808 -25.786171 2.012991e-38 0 -0.99806947 -0.062106293 0
26.70537 -159.59286 -25.96735 2.2425798e-38 0 -0.99649328 -0.083672285 0
26.737999 -159.52626 -26.140999 1.2117981e-39 0 -0.93367559 -0.3581199 0
26.771629 -159.45761 -26.314283 2.2425798e-38 0 -0.92970103 -0.36831513 0
26.813625 -159.37189 -26.484949 2.2425798e-38 0 -0.89360672 -0.44885066 0
26.865091 -159.26683 -26.652607 1.2117981e-39 0 -0.84738302 -0.53098208 0
26.898073 -159.19951 -26.825823 1.2117981e-39 0 -0.93207723 -0.36225951 0
26.929924 -159.13449 -26.999311 2.012991e-38 0 -0.93640107 -0.35093164 0
26.974724 -159.04305 -27.168697 1.3242248e-38 0 -0.87995422 -0.47505856 0
26.967756 -159.05727 -27.354233 2.2425798e-38 0 -0.99707532 0.076425292 0
27.01017 -158.97069 -27.524244 2.012991e-38 0 -0.89110577 -0.45379564 0
27.057159 -158.87477 -27.69269 2.012991e-38 0 -0.86899298 -0.49482438 0
27.100067 -158.78719 -27.862318 1.7834023e-38 0 -0.88854498 -0.4587895 0
27.134872 -158.71614 -28.034452 1.7834023e-38 0 -0.92436391 -0.38151214 0
27.155161 -158.67473 -28.211227 2.2425798e-38 0 -0.97363997 -0.22809066 0
27.187258 -158.60921 -28.384136 2.012991e-38 0 -0.93511379 -0.35434762 0
27.19264 -158.59822 -28.565762 2.012991e-38 0 -0.99817556 -0.060378596 0
27.200565 -158.58205 -28.746588 2.012991e-38 0 -0.99602348 -0.08909107 0
27.228941 -158.52412 -28.920649 1.7834023e-38 0 -0.9488433 -0.31574738 0
27.243225 -158.49496 -29.099384 1.5538135e-38 0 -0.98695207 -0.16101466 0
27.263596 -158.45338 -29.276083 1.7834023e-38 0 -0.97341222 -0.22906041 0
27.278576 -158.42281 -29.454597 1.7834023e-38 0 -0.98564422 -0.16883579 0
27.29369 -158.39195 -29.633081 1.5538135e-38 0 -0.98538595 -0.17033677 0
27.291449 -158.39653 -29.817532 1.7834023e-38 0 -0.99969214 0.024810104 0
27.307415 -158.36394 -29.995783 1.7834023e-38 0 -0.98369122 -0.17986535 0
27.323353 -158.33141 -30.174046 1.5538135e-38 0 -0.98375285 -0.17952824 0
27.346674 -158.2838 -30.349743 2.012991e-38 0 -0.96519482 -0.2615318 0
27.365887 -158.24458 -30.526859 1.7834023e-38 0 -0.97635496 -0.21617337 0
27.392992 -158.18925 -30.701181 1.7834023e-38 0 -0.95314318 -0.30251959 0
27.413294 -158.14781 -30.877886 1.5538135e-38 0 -0.97358233 -0.22833639 0
27.450327 -158.07222 -31.048599 1.7834023e-38 0 -0.91436845 -0.40488309 0
27.481543 -158.0085 -31.221331 1.5538135e-38 0 -0.93819708 -0.3461014 0
27.526215 -157.91731 -31.389143 1.5538135e-38 0 -0.87865937 -0.47744933 0
27.593298 -157.78038 -31.548697 1.3242248e-38 0 -0.75885177 -0.65126342 0
27.643261 -157.67839 -31.714317 1.3242248e-38 0 -0.85149938 -0.52435565 0
27.686998 -157.58911 -31.882103 1.3242248e-38 0 -0.88280368 -0.46974212 0
