# .PCD v0.7 - Point Cloud Data file format
VERSION 0.7
FIELDS x y z rgb normal_x normal_y normal_z curvature
SIZE 4 4 4 4 4 4 4 4
TYPE F F F F F F F F
COUNT 1 1 1 1 1 1 1 1
WIDTH 657
HEIGHT 1
VIEWPOINT 0 0 0 1 0 0 0
POINTS 657
DATA ascii
52.514698 -227.57466 -46.724529 1.1501753e-38 0 -0.98748708 0.1577003 0
52.509254 -227.58577 -46.989346 1.1686496e-38 0 -0.99912137 0.041910712 0
52.48481 -227.63567 -47.262505 1.1778328e-38 0 -0.98372316 0.17969052 0
52.440811 -227.72548 -47.544334 1.1963071e-38 0 -0.95278889 0.30363375 0
52.391762 -227.82561 -47.828712 1.2516598e-38 0 -0.94324046 0.33211052 0
52.31303 -227.98631 -48.126423 1.2608794e-38 0 -0.87997717 0.47501603 0
52.241554 -228.13222 -48.421448 1.2792109e-38 0 -0.89637274 0.44330111 0
52.216438 -228.18349 -48.696434 1.2883951e-38 0 -0.9830597 0.18328555 0
52.22345 -228.16917 -48.957382 1.3068343e-38 0 -0.99849916 -0.05476667 0
52.264172 -228.08604 -49.203346 1.3159468e-38 0 -0.94735563 -0.32018322 0
52.284893 -228.04375 -49.458221 1.3159824e-38 0 -0.98650777 -0.16371417 0
52.296406 -228.02025 -49.717308 1.3159819e-38 0 -0.99591219 -0.090326853 0
52.264652 -228.08507 -49.996109 1.2884305e-38 0 -0.97402203 0.22645351 0
52.21204 -228.19246 -50.284721 1.2884305e-38 0 -0.93722111 0.34873572 0
52.174828 -228.26842 -50.566639 1.3068343e-38 0 -0.96556646 0.26015669 0
52.116539 -228.38741 -50.858604 1.3160184e-38 0 -0.92604899 0.37740335 0
52.082317 -228.45726 -51.139816 1.3160187e-38 0 -0.97050542 0.24107945 0
52.052536 -228.51805 -51.419254 1.2791753e-38 0 -0.97714466 0.21257529 0
52.045254 -228.53291 -51.688404 1.2792106e-38 0 -0.99847895 0.055134557 0
52.018791 -228.58693 -51.966778 1.2700265e-38 0 -0.98168945 0.1904887 0
51.967274 -228.69209 -52.257286 1.233148e-38 0 -0.94028705 0.34038255 0
51.923004 -228.78246 -52.544724 1.1779385e-38 0 -0.9539699 0.29990232 0
51.907246 -228.81462 -52.818859 1.1594641e-38 0 -0.99318659 0.11653493 0
51.82357 -228.98543 -53.125893 1.1594642e-38 0 -0.87387598 0.48614895 0
51.781769 -229.07076 -53.413219 1.1686482e-38 0 -0.95862234 0.28468108 0
51.732388 -229.17155 -53.704567 1.1502093e-38 0 -0.94503766 0.3269614 0
51.69268 -229.25261 -53.99157 1.1041834e-38 0 -0.96235746 0.27178705 0
51.648109 -229.34358 -54.281296 1.1134027e-38 0 -0.95407277 0.29957509 0
51.678387 -229.28178 -54.534447 1.0858879e-38 0 -0.97147262 -0.23715162 0
51.594784 -229.45244 -54.84407 1.0859601e-38 0 -0.8757841 0.48270306 0
51.591492 -229.45915 -55.114212 1.058374e-38 0 -0.99969131 0.024845468 0
51.554955 -229.53374 -55.401161 9.9383716e-39 0 -0.96784037 0.25156492 0
51.527267 -229.59026 -55.683975 9.2930022e-39 0 -0.98061019 0.19596861 0
51.424213 -229.80061 -56.005196 9.290854e-39 0 -0.836577 0.54784936 0
51.317032 -230.01939 -56.329178 8.9227904e-39 0 -0.82873893 0.5596354 0
51.228706 -230.19969 -56.644192 8.2795846e-39 0 -0.86789888 0.49674097 0
51.037567 -230.58986 -57.012585 8.0966311e-39 0 -0.68652666 0.7271046 0
50.952316 -230.76387 -57.32745 7.6370948e-39 0 -0.87523347 0.48370063 0
50.797791 -231.0793 -57.678822 7.2690326e-39 0 -0.74414116 0.66802245 0
50.707115 -231.26439 -57.997833 6.9009689e-39 0 -0.86495781 0.50184453 0
50.653938 -231.37294 -58.297802 6.7162147e-39 0 -0.94032437 0.3402794 0
50.616608 -231.44914 -58.589851 6.4399908e-39 0 -0.9676047 0.25247025 0
50.621212 -231.43974 -58.860073 6.1630522e-39 0 -0.99939555 -0.034763057 0
50.810604 -231.05315 -59.032314 5.7024398e-39 0 -0.40696788 -0.91344243 0
45.764999 -241.35249 -62.292049 6.0726502e-39 0 -0.30174661 0.95338821 0
43.437996 -246.10249 -63.84222 4.7833547e-39 0 -0.31024814 0.95065558 0
44.479027 -243.97749 -63.564373 3.8639222e-39 0 0.12964813 -0.9915601 0
44.002735 -244.94972 -64.114525 2.943412e-39 0 -0.49248537 0.8703208 0
42.9571 -247.08412 -66.74147 3.0356076e-39 0 -0.77611315 0.63059378 0
43.348743 -246.28468 -66.812294 3.3121917e-39 0 -0.088246152 -0.99609876 0
42.483116 -248.05165 -67.600822 4.877358e-39 0 -0.4075231 0.91319489 0
42.564293 -247.88594 -67.849564 6.1666521e-39 0 -0.83223093 -0.55442917 0
46.514839 -239.82188 -65.86953 4.6022145e-39 0 0.23845528 -0.9711535 0
46.597679 -239.65279 -66.107475 4.9699152e-39 0 -0.8151297 -0.57927841 0
46.671593 -239.50191 -66.350349 4.6936856e-39 0 -0.84943724 -0.52768958 0
46.685169 -239.4742 -66.628143 4.1415909e-39 0 -0.99506176 -0.099257484 0
46.685169 -239.4742 -66.913963 4.4167414e-39 0 -1 0 0
98.158974 -144.60945 23.325523 1.7684261e-38 0 -1 0 0
98.090935 -144.74834 23.176168 1.8422186e-38 0 -0.73230731 0.6809743 0
97.988876 -144.95667 23.035934 1.7222561e-38 0 -0.55841219 0.82956374 0
97.839874 -145.26082 22.908155 1.8141996e-38 0 -0.38732156 0.92194474 0
97.71331 -145.51917 22.773806 1.8694089e-38 0 -0.46137875 0.88720334 0
97.580635 -145.78999 22.640682 1.7684255e-38 0 -0.44113067 0.89744288 0
97.453049 -146.05042 22.505762 1.740839e-38 0 -0.46001247 0.88791245 0
97.332283 -146.29694 22.368608 1.7869364e-38 0 -0.48617786 0.87385988 0
97.172379 -146.62334 22.241375 1.8423616e-38 0 -0.3631897 0.93171519 0
97.053314 -146.86638 22.102901 1.8329979e-38 0 -0.49504 0.8688702 0
96.932541 -147.11292 21.964479 1.7591343e-38 0 -0.48957697 0.8719601 0
96.798157 -147.38722 21.829172 1.6946344e-38 0 -0.44237792 0.89682865 0
96.692696 -147.60249 21.685989 1.796014e-38 0 -0.55381292 0.83264112 0
96.560013 -147.87334 21.549389 1.8511158e-38 0 -0.45031956 0.89286739 0
96.270844 -148.46361 21.280827 1.7128937e-38 0 -0.41413176 0.91021693 0
96.141563 -148.72749 21.141985 1.8051971e-38 0 -0.46562701 0.8849811 0
96.019089 -148.97749 21.001022 1.8235273e-38 0 -0.49115455 0.87107247 0
95.871094 -149.27959 20.865913 1.8510417e-38 0 -0.40827 0.91286123 0
95.896622 -149.22749 20.687965 1.9521682e-38 0 -0.95972121 -0.28095424 0
94.354492 -152.37535 19.843761 1.8238873e-38 0 -0.25903034 0.96586925 0
94.235001 -152.61926 19.696857 1.8053392e-38 0 -0.51593328 0.85662872 0
51.667976 -239.50929 -1.3265318 2.0795492e-38 0 -0.23516831 0.97195458 0
51.775394 -239.29002 -1.5903511 2.0794416e-38 0 -0.7690531 -0.63918495 0
51.904312 -239.02687 -1.8533288 2.0334519e-38 0 -0.70687109 -0.70734239 0
52.027832 -238.77473 -2.1158149 2.0610379e-38 0 -0.72118199 -0.69274569 0
52.20084 -238.42159 -2.376704 2.0702575e-38 0 -0.59419304 -0.80432248 0
52.387764 -238.04002 -2.636477 2.024267e-38 0 -0.5627712 -0.82661277 0
52.553879 -237.70094 -2.8959229 2.079477e-38 0 -0.60767001 -0.79418957 0
52.723534 -237.35463 -3.15451 2.0978088e-38 0 -0.59829873 -0.80127311 0
52.8731 -237.04933 -3.4129257 2.0976649e-38 0 -0.64606857 -0.76327932 0
52.987709 -236.81538 -3.6717989 2.0976646e-38 0 -0.74192184 -0.67048633 0
53.077007 -236.6331 -3.93102 2.1253588e-38 0 -0.81800443 -0.575212 0
53.192917 -236.3965 -4.1888552 2.097521e-38 0 -0.73679262 -0.67611879 0
53.321194 -236.13466 -4.4456801 2.0974494e-38 0 -0.70023584 -0.71391159 0
53.396275 -235.9814 -4.7041349 2.1067401e-38 0 -0.86014426 -0.51005083 0
53.491447 -235.78712 -4.9613738 2.1252869e-38 0 -0.79799169 -0.60266846 0
53.571495 -235.62373 -5.2188845 2.1624162e-38 0 -0.84437257 -0.53575635 0
53.691113 -235.37956 -5.4741201 2.1714569e-38 0 -0.72259563 -0.69127095 0
53.797634 -235.16212 -5.7294827 2.1436911e-38 0 -0.76138049 -0.64830524 0
53.949516 -234.8521 -5.9819703 2.1160327e-38 0 -0.63148081 -0.77539152 0
54.053841 -234.63914 -6.2363973 2.0973084e-38 0 -0.76684219 -0.64183575 0
54.200428 -234.33992 -6.4879212 2.0883035e-38 0 -0.64345467 -0.76548421 0
54.282207 -234.17299 -6.7426734 2.0607515e-38 0 -0.83642411 -0.54808265 0
54.370819 -233.99211 -6.9966393 2.0239084e-38 0 -0.81453139 -0.58011949 0
54.430649 -233.86998 -7.2520723 2.033344e-38 0 -0.90217865 -0.43136266 0
54.526527 -233.67427 -7.504837 2.0703299e-38 0 -0.79069275 -0.61221313 0
54.630581 -233.46187 -7.7566137 2.1256827e-38 0 -0.76434267 -0.6448102 0
54.725937 -233.26723 -8.0085516 2.0612537e-38 0 -0.79134297 -0.61137247 0
54.866379 -232.98055 -8.2567549 2.0150491e-38 0 -0.65454704 -0.7560212 0
54.974396 -232.76006 -8.5067892 2.005866e-38 0 -0.7500298 -0.66140395 0
55.083759 -232.53682 -8.7562418 1.9966101e-38 0 -0.74517953 -0.66686404 0
55.203827 -232.29173 -9.0043507 1.9689147e-38 0 -0.71142644 -0.70276064 0
55.361267 -231.97035 -9.2488317 1.9964291e-38 0 -0.60544711 -0.79588556 0
55.471004 -231.74635 -9.4966774 2.0055409e-38 0 -0.74189651 -0.67051446 0
55.580338 -231.52318 -9.7440758 1.9777038e-38 0 -0.74252284 -0.66982079 0
55.660023 -231.36052 -9.993659 2.0144037e-38 0 -0.83778411 -0.54600167 0
55.727673 -231.22243 -10.244008 2.0604651e-38 0 -0.87562436 -0.48299268 0
55.820786 -231.03236 -10.491677 2.0697921e-38 0 -0.79332209 -0.60880214 0
55.895912 -230.87901 -10.740672 2.0146184e-38 0 -0.85147017 -0.5244031 0
56.00058 -230.66536 -10.986428 1.922602e-38 0 -0.75467765 -0.65609574 0
56.137196 -230.38649 -11.228496 1.931857e-38 0 -0.65551847 -0.75517911 0
56.520477 -229.60411 -11.444444 1.9778825e-38 0 -0.26606566 -0.96395493 0
56.649559 -229.34062 -11.68555 1.95008e-38 0 -0.67507726 -0.73774713 0
56.782143 -229.06999 -11.925715 1.9223493e-38 0 -0.66375506 -0.74795002 0
56.881084 -228.86803 -12.169013 1.8490607e-38 0 -0.76943713 -0.63872248 0
57.039856 -228.54393 -12.405151 1.9874257e-38 0 -0.58887553 -0.80822366 0
57.214043 -228.18837 -12.638836 2.0611818e-38 0 -0.54922819 -0.83567244 0
57.357208 -227.89613 -12.875379 2.0151193e-38 0 -0.62915075 -0.77728331 0
57.553944 -227.49455 -13.104904 1.9688776e-38 0 -0.49622178 -0.86819583 0
57.639385 -227.32014 -13.3471 1.9688057e-38 0 -0.81149179 -0.58436382 0
57.746983 -227.10051 -13.586192 2.0147243e-38 0 -0.73643649 -0.67650664 0
57.90263 -226.78279 -13.818764 2.0793697e-38 0 -0.59066653 -0.8069157 0
58.069611 -226.44194 -14.049204 2.0241947e-38 0 -0.56008351 -0.82843614 0
58.237701 -226.09883 -14.278773 2.0057207e-38 0 -0.55609137 -0.83112121 0
58.393646 -225.7805 -14.509224 1.9778469e-38 0 -0.58640403 -0.81001872 0
58.524178 -225.51405 -14.742445 1.9685557e-38 0 -0.65862966 -0.75246722 0
58.623856 -225.31059 -14.979341 1.9593362e-38 0 -0.75861168 -0.65154302 0
58.722019 -225.11021 -15.216027 2.0056488e-38 0 -0.76321918 -0.64613962 0
58.826851 -224.89622 -15.451355 1.9966086e-38 0 -0.7398541 -0.6727674 0
58.927631 -224.69051 -15.68683 1.9782058e-38 0 -0.75308567 -0.65792251 0
59.104706 -224.32906 -15.9107 2.0147956e-38 0 -0.52655083 -0.85014367 0
59.257198 -224.01778 -16.137461 1.9963212e-38 0 -0.58880991 -0.80827147 0
59.400497 -223.72527 -16.36496 1.9871743e-38 0 -0.61392456 -0.7893647 0
59.545414 -223.42946 -16.591597 1.9779193e-38 0 -0.6081807 -0.79379857 0
59.697517 -223.11897 -16.816505 1.9503325e-38 0 -0.5866369 -0.8098501 0
59.80241 -222.90486 -17.048204 1.9503325e-38 0 -0.73443156 -0.6786828 0
59.943829 -222.6162 -17.273623 1.9503324e-38 0 -0.61547107 -0.78815955 0
60.055744 -222.38774 -17.503231 2.0240526e-38 0 -0.70888585 -0.70532316 0
60.23074 -222.03053 -17.721989 1.9688796e-38 0 -0.52225578 -0.85278893 0
60.384865 -221.71593 -17.943478 1.9781346e-38 0 -0.57566679 -0.81768441 0
60.523109 -221.43373 -18.166996 1.9874255e-38 0 -0.62089616 -0.78389281 0
60.627213 -221.22124 -18.395781 1.950619e-38 0 -0.73271191 -0.68053895 0
60.777237 -220.91499 -18.616165 1.9966802e-38 0 -0.58411092 -0.81167382 0
60.886959 -220.69102 -18.84301 2.024195e-38 0 -0.71160382 -0.70258099 0
60.975601 -220.51009 -19.073149 1.9685899e-38 0 -0.78612685 -0.6180653 0
61.067596 -220.3223 -19.302326 1.9499713e-38 0 -0.7734921 -0.63380581 0
61.175144 -220.10277 -19.528288 1.8945834e-38 0 -0.71724355 -0.69682246 0
61.265968 -219.91737 -19.756905 1.9497929e-38 0 -0.77670693 -0.62986219 0
61.321957 -219.80309 -19.991671 2.0418803e-38 0 -0.89911783 -0.43770677 0
61.38353 -219.6774 -20.225178 2.0234768e-38 0 -0.88054663 -0.47395957 0
61.417042 -219.60899 -20.463827 2.0233326e-38 0 -0.96129 -0.27553892 0
61.449162 -219.54343 -20.702644 1.9956386e-38 0 -0.96431649 -0.26475209 0
61.499397 -219.44089 -20.937822 2.0231545e-38 0 -0.91665947 -0.39966923 0
61.589218 -219.25754 -21.164953 2.1153873e-38 0 -0.77811235 -0.62812501 0
61.674263 -219.08394 -21.392689 2.0601404e-38 0 -0.79528612 -0.60623425 0
61.733421 -218.96318 -21.625341 2.0235128e-38 0 -0.88756216 -0.46068797 0
61.788139 -218.85149 -21.858694 1.9683028e-38 0 -0.90199745 -0.43174139 0
61.897945 -218.62735 -22.080412 1.9222403e-38 0 -0.70326072 -0.71093196 0
61.958061 -218.50464 -22.312111 1.9685896e-38 0 -0.88371384 -0.4680278 0
62.03891 -218.3396 -22.539196 1.9869566e-38 0 -0.80892879 -0.58790666 0
62.096703 -218.22163 -22.770908 1.9867768e-38 0 -0.89115834 -0.45369235 0
62.154209 -218.10425 -23.002483 1.9591537e-38 0 -0.89195102 -0.45213187 0
62.242634 -217.92375 -23.227079 1.9039102e-38 0 -0.77947968 -0.62642753 0
62.285892 -217.83545 -23.461315 1.9315333e-38 0 -0.93571818 -0.35274869 0
62.349777 -217.70505 -23.690805 1.9407533e-38 0 -0.86944127 -0.49403635 0
62.388004 -217.62701 -23.925852 1.9038749e-38 0 -0.94906461 -0.31508157 0
62.432602 -217.53598 -24.15933 1.848737e-38 0 -0.93168521 -0.36326665 0
62.483902 -217.43126 -24.391123 1.8302976e-38 0 -0.91131067 -0.41171932 0
62.540268 -217.31621 -24.621563 1.8394818e-38 0 -0.8946892 -0.44668925 0
62.585949 -217.22296 -24.854313 1.8579211e-38 0 -0.92827511 -0.37189427 0
62.658287 -217.0753 -25.080608 1.8117885e-38 0 -0.83748305 -0.54646325 0
62.728401 -216.93217 -25.307154 1.8209359e-38 0 -0.84541106 -0.53411615 0
62.781544 -216.8237 -25.537544 1.8116441e-38 0 -0.90473449 -0.42597592 0
62.830349 -216.72408 -25.768814 1.7746936e-38 0 -0.91841161 -0.39562625 0
62.888508 -216.60536 -25.997623 1.7470349e-38 0 -0.88764119 -0.46053573 0
62.917114 -216.54697 -26.233574 1.7561472e-38 0 -0.97071308 -0.2402418 0
62.935421 -216.5096 -26.472036 1.7930257e-38 0 -0.98794299 -0.15481775 0
62.942883 -216.49437 -26.713226 1.8390878e-38 0 -0.99801272 -0.063012607 0
62.96645 -216.44626 -26.950335 1.8300113e-38 0 -0.98002899 -0.19885491 0
62.966782 -216.44559 -27.193399 1.8300113e-38 0 -0.99999619 -0.0027621603 0
62.980408 -216.41777 -27.433064 1.820792e-38 0 -0.99333173 -0.11529171 0
62.991245 -216.39565 -27.673468 1.8023173e-38 0 -0.99579161 -0.091646232 0
63.014404 -216.34837 -27.910625 1.7746586e-38 0 -0.98070759 -0.19548056 0
63.139996 -216.09201 -28.12043 1.7562196e-38 0 -0.63333374 -0.77387881 0
63.143711 -216.08443 -28.362513 1.7470001e-38 0 -0.99950963 -0.031311214 0
63.150131 -216.07132 -28.603914 1.7378168e-38 0 -0.99852914 -0.05421678 0
63.029751 -216.31705 -28.88006 1.7376362e-38 0 -0.74705386 0.66476339 0
63.122833 -216.12704 -29.097923 1.7193042e-38 0 -0.75365192 -0.65727383 0
63.114655 -216.14374 -29.34362 1.691753e-38 0 -0.99769992 0.067785598 0
63.10181 -216.16995 -29.590721 1.6826055e-38 0 -0.99441969 0.10549667 0
63.101826 -216.16992 -29.834322 1.6734229e-38 0 -1 -0.00012527697 0
63.062508 -216.25018 -30.089216 1.6642036e-38 0 -0.95383126 0.30034286 0
63.021538 -216.33382 -30.344845 1.6642755e-38 0 -0.95042664 0.31094891 0
63.078331 -216.21788 -30.572395 1.6827144e-38 0 -0.89101684 -0.45397031 0
62.880672 -216.62135 -30.874121 1.7194131e-38 0 -0.59888244 0.80083692 0
62.941139 -216.49792 -31.100801 1.6917544e-38 0 -0.87824667 -0.47820792 0
62.927738 -216.52528 -31.349213 1.6733153e-38 0 -0.99398965 0.10947403 0
62.872437 -216.63817 -31.610313 1.6549841e-38 0 -0.91788763 0.3968403 0
62.904751 -216.5722 -31.845318 1.6549841e-38 0 -0.96279097 -0.27024725 0
62.82827 -216.72832 -32.113312 1.6549842e-38 0 -0.86408341 0.50334859 0
62.829296 -216.72623 -32.358009 1.6641685e-38 0 -0.99996352 -0.0085426997 0
62.745888 -216.89648 -32.628834 1.6918274e-38 0 -0.84660125 0.53222769 0
62.716518 -216.95644 -32.883331 1.6368695e-38 0 -0.97335744 0.22929305 0
62.657291 -217.07733 -33.1474 1.6552363e-38 0 -0.90924221 0.41626754 0
62.614532 -217.16461 -33.406635 1.6367972e-38 0 -0.94772649 0.31908384 0
62.554596 -217.28696 -33.671619 1.6183218e-38 0 -0.90790123 0.41918418 0
62.586308 -217.22223 -33.907604 1.5814795e-38 0 -0.96438074 -0.26451799 0
62.699684 -216.9908 -34.117184 1.5631486e-38 0 -0.67124856 -0.7412324 0
62.621162 -217.15108 -34.388672 1.581624e-38 0 -0.86113006 0.50838482 0
62.617031 -217.15952 -34.636272 1.5909157e-38 0 -0.99941981 0.034059756 0
62.444996 -217.51068 -34.939327 1.5998473e-38 0 -0.65334231 0.75706255 0
62.436554 -217.52791 -35.188953 1.5997747e-38 0 -0.99762708 0.068848133 0
62.442028 -217.51674 -35.434063 1.599738e-38 0 -0.9989633 -0.045521908 0
62.393433 -217.61594 -35.697441 1.5722586e-38 0 -0.93582523 0.35246441 0
62.459915 -217.48022 -35.922115 1.5632902e-38 0 -0.85596454 -0.51703471 0
62.472206 -217.45514 -36.165081 1.5725098e-38 0 -0.99471223 -0.10270093 0
62.47427 -217.45093 -36.411587 1.599989e-38 0 -0.99985409 -0.017082002 0
62.362701 -217.67867 -36.697498 1.6457993e-38 0 -0.78219068 0.62303913 0
62.286709 -217.83379 -36.971634 1.609352e-38 0 -0.87032527 0.49247742 0
62.265045 -217.87801 -37.227158 1.6184283e-38 0 -0.98535395 0.17052166 0
62.294743 -217.81738 -37.464737 1.6275765e-38 0 -0.9689523 -0.24724776 0
62.363895 -217.67622 -37.688248 1.6274334e-38 0 -0.84549856 -0.53397781 0
62.334999 -217.73521 -37.946609 1.6182141e-38 0 -0.97491074 0.22259656 0
62.31509 -217.77585 -38.201965 1.599847e-38 0 -0.98757464 0.15715036 0
62.343967 -217.7169 -38.439842 1.5999186e-38 0 -0.970644 -0.24052072 0
62.329659 -217.74611 -38.693428 1.590807e-38 0 -0.9934333 0.1144131 0
62.273529 -217.86069 -38.962528 1.5449607e-38 0 -0.92007148 0.39175066 0
62.247169 -217.91449 -39.220997 1.5172663e-38 0 -0.97901458 0.20379038 0
62.222466 -217.96492 -39.479073 1.5080825e-38 0 -0.98143756 0.19178167 0
62.230457 -217.94861 -39.725124 1.5265566e-38 0 -0.99780977 -0.066148348 0
62.180889 -218.04979 -39.992916 1.5174082e-38 0 -0.93545443 0.3534472 0
62.185642 -218.04008 -40.240456 1.471418e-38 0 -0.99923241 -0.03917411 0
62.178535 -218.0546 -40.492599 1.4254287e-38 0 -0.998348 0.057455834 0
62.169445 -218.07315 -40.745644 1.4252856e-38 0 -0.99732238 0.073129557 0
62.117516 -218.17915 -41.015369 1.3427058e-38 0 -0.93070561 0.36576927 0
62.013744 -218.39098 -41.305592 1.3611089e-38 0 -0.80773956 0.58953947 0
61.985786 -218.44804 -41.566772 1.3519255e-38 0 -0.97695112 0.21346325 0
61.877544 -218.66899 -41.859772 1.2877477e-38 0 -0.7984305 0.60208696 0
61.829918 -218.7662 -42.129402 1.2509059e-38 0 -0.94072413 0.33917284 0
61.807659 -218.81165 -42.389267 1.1772936e-38 0 -0.98505342 0.17224914 0
61.792042 -218.84352 -42.646683 1.1127215e-38 0 -0.9924202 0.12289068 0
61.790646 -218.84637 -42.898552 1.0574401e-38 0 -0.99993587 0.011328144 0
61.756557 -218.91595 -43.163792 9.7446435e-39 0 -0.96727157 0.25374341 0
61.720963 -218.98862 -43.429916 9.3755079e-39 0 -0.96468753 0.26339704 0
61.582325 -219.27161 -43.738583 9.6520948e-39 0 -0.73710001 0.67578357 0
61.360191 -219.72504 -44.082485 9.4702217e-39 0 -0.60429847 0.79675806 0
61.172264 -220.10864 -44.413391 8.7351733e-39 0 -0.65317869 0.75720388 0
61.045471 -220.36746 -44.719791 8.4603899e-39 0 -0.76392967 0.64529949 0
60.779945 -220.90947 -45.085217 8.5540247e-39 0 -0.559021 0.82915354 0
60.653282 -221.16801 -45.393372 8.5547464e-39 0 -0.76607859 0.64274698 0
60.426727 -221.63048 -45.744736 8.8288081e-39 0 -0.60496539 0.79625183 0
60.274712 -221.94078 -46.065456 9.0121232e-39 0 -0.71868289 0.69533801 0
60.036041 -222.42796 -46.42432 9.4727356e-39 0 -0.59307814 0.80514485 0
59.899124 -222.70744 -46.740429 9.6574786e-39 0 -0.74917841 0.66236824 0
59.799778 -222.91023 -47.04097 9.9333368e-39 0 -0.82894564 0.55932915 0
59.63673 -223.24306 -47.369999 9.8414957e-39 0 -0.70304006 0.71115023 0
59.491096 -223.54033 -47.692291 9.9344158e-39 0 -0.73506355 0.67799819 0
59.328976 -223.87126 -48.02272 9.8422314e-39 0 -0.70656818 0.70764494 0
59.174461 -224.18666 -48.350685 9.9326375e-39 0 -0.7207799 0.69316399 0
59.093941 -224.35103 -48.64637 9.1968676e-39 0 -0.87403387 0.48586506 0
59.037964 -224.46529 -48.93153 9.8415153e-39 0 -0.92825896 0.37193441 0
58.931084 -224.68346 -49.240135 1.0393247e-38 0 -0.81655478 0.577268 0
58.819973 -224.91026 -49.551311 1.0946059e-38 0 -0.80812216 0.58901489 0
58.720284 -225.11375 -49.857922 1.1129369e-38 0 -0.83319676 0.55297661 0
58.692013 -225.17146 -50.132275 1.1313397e-38 0 -0.9785856 0.20584041 0
58.64719 -225.26295 -50.414555 1.1221199e-38 0 -0.95128077 0.30832615 0
58.6008 -225.35765 -50.69791 1.0670528e-38 0 -0.94843787 0.31696314 0
58.544662 -225.47224 -50.986179 1.1038957e-38 0 -0.92926842 0.36940536 0
58.484562 -225.59492 -51.276714 1.1592497e-38 0 -0.92123783 0.38899988 0
58.393902 -225.77998 -51.582123 1.1961279e-38 0 -0.85524434 0.51822501 0
58.367828 -225.83321 -51.857422 1.159285e-38 0 -0.98182046 0.18981209 0
58.317776 -225.93538 -52.144428 1.1777241e-38 0 -0.9420839 0.33537722 0
58.280472 -226.01152 -52.42569 1.2054188e-38 0 -0.96525544 0.26130798 0
58.299789 -225.97209 -52.679962 1.2146389e-38 0 -0.98819 -0.15323348 0
58.203701 -226.16823 -52.990215 1.2054194e-38 0 -0.84525865 0.53435737 0
58.137501 -226.30336 -53.286514 1.1960925e-38 0 -0.90984458 0.41494903 0
58.071808 -226.43745 -53.583035 1.177617e-38 0 -0.91116083 0.41205084 0
58.080288 -226.42015 -53.843502 1.1498507e-38 0 -0.99780071 -0.066286229 0
57.997059 -226.59004 -54.149437 1.1221564e-38 0 -0.87424523 0.48548466 0
57.896637 -226.79503 -54.464462 1.1037177e-38 0 -0.83817595 0.54540002 0
57.813137 -226.96547 -54.771671 1.0853509e-38 0 -0.87443632 0.48514041 0
57.773308 -227.04677 -55.057499 1.0761677e-38 0 -0.9618488 0.27358159 0
57.716827 -227.16206 -55.352066 1.0025535e-38 0 -0.93121058 0.36448166 0
57.588223 -227.42458 -55.683643 9.7493029e-39 0 -0.78403026 0.62072259 0
57.485455 -227.63435 -56.002827 9.3812406e-39 0 -0.83567089 0.54923052 0
57.337341 -227.93669 -56.345894 9.1064516e-39 0 -0.7502377 0.66116822 0
57.241028 -228.13329 -56.663181 9.1990073e-39 0 -0.8500514 0.52669972 0
57.160805 -228.29704 -56.972782 8.9224247e-39 0 -0.88396376 0.4675554 0
57.090866 -228.4398 -57.277565 8.8305948e-39 0 -0.90557963 0.42417628 0
57.03754 -228.54866 -57.574165 8.7391208e-39 0 -0.93877119 0.34454128 0
56.962502 -228.70183 -57.882576 8.1866687e-39 0 -0.89562929 0.44480145 0
56.789001 -229.05598 -58.243446 8.2781455e-39 0 -0.71371484 0.70043641 0
56.570354 -229.5023 -58.629269 8.4621808e-39 0 -0.65397364 0.75651729 0
56.409817 -229.83 -58.985405 8.0941171e-39 0 -0.7358771 0.67711508 0
56.305042 -230.04387 -59.31266 7.5427412e-39 0 -0.83709538 0.54705685 0
56.154373 -230.35143 -59.665268 6.9917254e-39 0 -0.75360912 0.65732282 0
56.290871 -230.0728 -59.863651 6.9924457e-39 0 -0.58000845 -0.81461048 0
56.312714 -230.02821 -60.123726 6.9931646e-39 0 -0.98562104 -0.16897103 0
56.326271 -230.00053 -60.388371 6.532192e-39 0 -0.99457484 -0.10402357 0
51.607815 -239.6321 -63.538383 2.6661063e-39 0 -0.3108488 0.9504593 0
51.306999 -240.24614 -63.99004 2.5739106e-39 0 -0.59252095 0.80555505 0
51.18161 -240.50209 -64.345253 2.482794e-39 0 -0.81132048 0.5846017 0
51.209595 -240.44496 -64.615036 2.0225417e-39 0 -0.978306 -0.20716482 0
49.979191 -242.95653 -66.463089 2.2072889e-39 0 -0.59266371 0.80544996 0
49.995636 -242.92296 -66.742989 2.2994845e-39 0 -0.9928847 -0.11908013 0
50.062122 -242.78725 -66.994072 1.8395938e-39 0 -0.87971973 -0.47549242 0
50.123791 -242.66136 -67.24778 1.5626566e-39 0 -0.89579141 -0.44447461 0
50.108795 -242.69197 -67.546074 1.4708225e-39 0 -0.99477643 0.10207793 0
93.220505 -164.89638 0.36834243 2.1152445e-38 0 -1 0 0
93.236099 -164.86455 0.18413855 2.1425456e-38 0 -0.98539686 -0.17027339 0
93.273438 -164.78833 0 2.1336858e-38 0 -0.92397714 -0.38244769 0
93.373383 -164.58432 -0.18385294 2.1615603e-38 0 -0.66945535 -0.74285233 0
93.356003 -164.61978 -0.36777863 2.272341e-38 0 -0.98191619 0.18931639 0
93.979317 -163.34744 -1.4608023 2.2354624e-38 0 -0.65163213 -0.75853515 0
94.189873 -162.91765 -1.8216655 2.1984405e-38 0 -0.64302075 -0.76584882 0
94.24794 -162.79912 -2.0025263 2.170745e-38 0 -0.83638626 -0.54814041 0
94.276733 -162.74034 -2.1838787 2.2078391e-38 0 -0.95128459 -0.30831423 0
94.372284 -162.5453 -2.3633218 2.1339016e-38 0 -0.67707354 -0.73591542 0
94.424393 -162.43893 -2.5436409 2.152125e-38 0 -0.86130947 -0.50808072 0
94.519943 -162.2439 -2.9039261 2.2072983e-38 0 -0.87941116 -0.47606292 0
94.590424 -162.10002 -3.0829856 2.1706734e-38 0 -0.7795344 -0.6263594 0
94.624168 -162.03114 -3.2631288 2.1337596e-38 0 -0.93405193 -0.35713711 0
94.679771 -161.91765 -3.4422824 2.2170236e-38 0 -0.84475327 -0.53515601 0
94.65892 -161.96021 -3.6243734 2.2542255e-38 0 -0.97375965 0.22757883 0
94.818748 -161.63396 -3.7987249 2.1980424e-38 0 -0.47132981 -0.88195705 0
94.919495 -161.4283 -3.9751117 2.2164475e-38 0 -0.65102243 -0.75905859 0
94.979019 -161.30681 -4.1530576 2.0594991e-38 0 -0.82587343 -0.56385553 0
95.030685 -161.20134 -4.3311505 2.0314805e-38 0 -0.86043519 -0.50955987 0
95.065277 -161.13072 -4.509922 2.0130776e-38 0 -0.93006641 -0.3673915 0
95.106079 -161.04744 -4.6882291 2.0776872e-38 0 -0.90604192 -0.423188 0
95.143021 -160.97203 -4.8665948 2.0589592e-38 0 -0.92106634 -0.38940576 0
95.177032 -160.9026 -5.0449891 2.0959094e-38 0 -0.93191302 -0.36268184 0
95.200935 -160.85382 -5.2238607 2.1512269e-38 0 -0.96476489 -0.26311326 0
95.22628 -160.80208 -5.4025564 2.1972181e-38 0 -0.96054292 -0.27813175 0
95.229973 -160.79454 -5.5825448 2.160269e-38 0 -0.99912417 -0.041842923 0
95.245377 -160.76311 -5.7617655 2.0492729e-38 0 -0.98496562 -0.17275088 0
95.255806 -160.74181 -5.9412675 2.0216145e-38 0 -0.9930324 -0.11784186 0
95.239243 -160.77562 -6.122633 2.0215066e-38 0 -0.98306066 0.18328018 0
95.189041 -160.8781 -6.3065066 2.1411466e-38 0 -0.87349904 0.48682588 0
95.169159 -160.91869 -6.4883552 2.0672821e-38 0 -0.97598475 0.21783866 0
95.146141 -160.96567 -6.6705408 2.067102e-38 0 -0.96832085 0.2497094 0
95.135841 -160.98669 -6.8518405 2.1130194e-38 0 -0.99334174 0.11520489 0
95.123795 -161.01128 -7.0333405 2.1589379e-38 0 -0.99095261 0.13421218 0
95.129257 -161.00012 -7.2134643 2.1405337e-38 0 -0.99808812 -0.061806653 0
95.14534 -160.9673 -7.3926926 2.1038703e-38 0 -0.9836424 -0.18013211 0
103.91956 -153.26317 11.405094 2.0980965e-38 0 -1 0 0
103.96689 -153.16655 11.22548 2.1533057e-38 0 -0.88066876 -0.47373256 0
104.04997 -152.99696 11.041482 2.1533775e-38 0 -0.73531759 -0.67772269 0
104.15933 -152.77373 10.854519 2.1441935e-38 0 -0.64207339 -0.76664311 0
104.27484 -152.53795 10.667265 2.153413e-38 0 -0.62191844 -0.78308201 0
104.3844 -152.31432 10.481248 2.2087664e-38 0 -0.63948691 -0.76880193 0
104.46912 -152.14137 10.298696 2.2456451e-38 0 -0.72595513 -0.68774217 0
104.55502 -151.96602 10.116381 2.2455382e-38 0 -0.72073185 -0.693214 0
104.61607 -151.8414 9.9373341 2.2823815e-38 0 -0.82076687 -0.57126325 0
104.6752 -151.7207 9.7587805 2.1993344e-38 0 -0.82847553 -0.56002533 0
104.72232 -151.62453 9.5818367 2.1901854e-38 0 -0.87860149 -0.47755569 0
104.75357 -151.56075 9.4068613 2.1717468e-38 0 -0.93952698 -0.34247482 0
104.80591 -151.4539 9.2297525 2.1624918e-38 0 -0.85626024 -0.5165447 0
104.84711 -151.3698 9.05406 2.1809308e-38 0 -0.90197515 -0.43178791 0
104.88535 -151.29176 8.8788671 2.1530916e-38 0 -0.91348237 -0.40687838 0
104.91635 -151.22847 8.7045851 2.1064903e-38 0 -0.93993509 -0.34135321 0
104.94759 -151.16469 8.5304279 2.124642e-38 0 -0.93900847 -0.34389398 0
104.96975 -151.11946 8.3573084 2.1336106e-38 0 -0.96752787 -0.25276425 0
104.98193 -151.0946 8.1852589 2.1058814e-38 0 -0.98972434 -0.14298877 0
105.00451 -151.04851 8.0122957 2.1148845e-38 0 -0.966272 -0.25752336 0
105.02461 -151.00748 7.8396745 2.169842e-38 0 -0.97289425 -0.23125027 0
105.03917 -150.97777 7.6676517 2.1698054e-38 0 -0.9854123 -0.17018369 0
105.05836 -150.9386 7.4952993 2.1513663e-38 0 -0.97513491 -0.22161214 0
105.07762 -150.89928 7.3230367 2.1604787e-38 0 -0.9749229 -0.22254282 0
105.11543 -150.82208 7.1493073 2.1695191e-38 0 -0.91384834 -0.4060556 0
105.12005 -150.81267 6.9784722 2.1601204e-38 0 -0.99848491 -0.055026241 0
105.13245 -150.78737 6.8070507 2.0678528e-38 0 -0.98928428 -0.14600252 0
105.14294 -150.76595 6.6358433 2.0864355e-38 0 -0.99226189 -0.12416262 0
105.13734 -150.77737 6.4659128 2.0865791e-38 0 -0.99774593 0.06710434 0
105.13823 -150.77556 6.2955003 2.0865791e-38 0 -0.99994326 -0.010654691 0
105.13959 -150.77278 6.125071 2.0864352e-38 0 -0.99986732 -0.016292576 0
105.14313 -150.76555 5.9545102 2.1045866e-38 0 -0.99910206 -0.042367119 0
105.14588 -150.75993 5.7840328 2.1041913e-38 0 -0.9994579 -0.032920439 0
105.15029 -150.75093 5.6134682 2.0763168e-38 0 -0.99860996 -0.052708294 0
105.15541 -150.74048 5.4428921 2.1130875e-38 0 -0.99812788 -0.061161574 0
105.16069 -150.72971 5.2723398 2.122307e-38 0 -0.99801111 -0.063038036 0
105.16337 -150.72424 5.1019778 2.122307e-38 0 -0.99948633 -0.032048464 0
105.16229 -150.72644 4.9318528 2.1222721e-38 0 -0.99991661 0.012914518 0
105.15751 -150.73621 4.7619472 2.1313846e-38 0 -0.99835235 0.057382047 0
105.1526 -150.74622 4.5920391 2.1313849e-38 0 -0.99826914 0.058810871 0
105.15144 -150.74858 4.4219289 2.1405315e-38 0 -0.99990338 0.013902067 0
105.14034 -150.77124 4.2523212 2.1313827e-38 0 -0.99119347 0.13242182 0
105.15215 -150.74715 4.0815787 2.0946506e-38 0 -0.99019009 -0.13972661 0
105.1532 -150.745 3.9113901 2.0947571e-38 0 -0.99992007 -0.012640779 0
105.15115 -150.74918 3.7413516 2.0948994e-38 0 -0.99969786 0.024580585 0
105.18896 -150.67201 3.5696428 2.0950073e-38 0 -0.91213059 -0.40989956 0
105.19507 -150.65953 3.3993568 2.0950436e-38 0 -0.99732447 -0.073102303 0
105.16867 -150.71341 3.2303393 2.0950434e-38 0 -0.95276195 0.30371791 0
105.13851 -150.77498 3.0613604 2.058164e-38 0 -0.93957472 0.34234375 0
105.11003 -150.83311 2.8922112 2.039544e-38 0 -0.94570208 0.32503456 0
105.09663 -150.86046 2.7224734 2.067168e-38 0 -0.98727155 0.15904357 0
105.07623 -150.90211 2.5528958 2.0395821e-38 0 -0.9711287 0.23855637 0
105.04136 -150.9733 2.3836508 2.0120679e-38 0 -0.92178881 0.38769239 0
104.98689 -151.08449 2.2147815 2.0029922e-38 0 -0.83520675 0.54993612 0
104.95455 -151.15048 2.0451696 1.9846247e-38 0 -0.93194139 0.36260885 0
104.93775 -151.18478 1.8750887 1.9662935e-38 0 -0.98026288 0.1976985 0
104.91558 -151.23004 1.7050552 1.9754776e-38 0 -0.96635461 0.25721326 0
104.89894 -151.26401 1.5348383 1.9846618e-38 0 -0.98066622 0.19568779 0
104.89443 -151.27321 1.3643639 1.9665456e-38 0 -0.99854666 0.053894762 0
104.85509 -151.35352 1.1943626 1.9756572e-38 0 -0.90418988 0.42713082 0
104.83672 -151.39101 1.0239524 1.9755493e-38 0 -0.97664374 0.21486497 0
104.82281 -151.41939 0.8534295 1.9662935e-38 0 -0.98643059 0.16417874 0
104.80743 -151.45079 0.68286484 1.9387067e-38 0 -0.98347086 0.18106641 0
104.7506 -151.56682 0.51248932 1.9294868e-38 0 -0.82653725 0.56288207 0
104.7316 -151.60559 0.34173292 1.8743852e-38 0 -0.97517687 0.22142728 0
104.64903 -151.77412 0.17103164 1.8743133e-38 0 -0.71161121 0.70257354 0
104.63363 -151.80557 0 1.8375797e-38 0 -0.98351204 0.18084283 0
104.59695 -151.88045 -0.17113602 1.8283962e-38 0 -0.9161517 0.40083173 0
104.55788 -151.96019 -0.3424291 1.8376157e-38 0 -0.90657687 0.42204064 0
104.54356 -151.98941 -0.51373082 1.9112286e-38 0 -0.98576134 0.16815078 0
104.51998 -152.03755 -0.68516552 1.9113362e-38 0 -0.96275997 0.2703577 0
104.49806 -152.08231 -0.85668576 1.9206275e-38 0 -0.96760398 0.2524727 0
104.4852 -152.10855 -1.0281811 1.9207349e-38 0 -0.98849165 0.15127572 0
104.49529 -152.08797 -1.1994084 1.930026e-38 0 -0.99285156 -0.11935572 0
104.49095 -152.09682 -1.3708296 1.893329e-38 0 -0.99866998 0.051559132 0
104.47374 -152.13194 -1.5425041 1.9301351e-38 0 -0.97970313 0.20045373 0
104.4966 -152.08528 -1.7134473 1.9485017e-38 0 -0.96470582 -0.26333007 0
104.49475 -152.08905 -1.8848486 1.9116588e-38 0 -0.99975836 0.021983562 0
104.48857 -152.10167 -2.056366 1.893183e-38 0 -0.99730444 0.07337451 0
104.49907 -152.08025 -2.2274778 1.9025449e-38 0 -0.9922533 -0.12423092 0
104.47503 -152.12932 -2.3995295 1.902724e-38 0 -0.96164989 0.27428004 0
104.46548 -152.14879 -2.5712411 1.8936476e-38 0 -0.99363279 0.11266702 0
104.43771 -152.20549 -2.7435827 1.9027593e-38 0 -0.94990879 0.31252706 0
104.41499 -152.25188 -2.9158707 1.9305273e-38 0 -0.9656136 0.25998133 0
104.52638 -152.02449 -3.0834126 1.9399645e-38 0 -0.59318542 -0.80506593 0
104.42841 -152.22447 -3.2584965 1.9585122e-38 0 -0.65871745 0.75239038 0
104.44164 -152.19748 -3.4295197 1.9400725e-38 0 -0.98777258 -0.1559014 0
104.42738 -152.22658 -3.601656 1.9123408e-38 0 -0.98601127 0.16667871 0
104.42998 -152.22128 -3.7731142 1.9581504e-38 0 -0.99952352 -0.030866273 0
104.42883 -152.22362 -3.9447498 1.9948844e-38 0 -0.99990743 0.013600782 0
104.42806 -152.22519 -4.1163764 1.9214513e-38 0 -0.99995804 0.009157028 0
104.42885 -152.22359 -4.2879372 1.9030122e-38 0 -0.99995643 -0.0093383994 0
104.41119 -152.25963 -4.4604688 1.8755333e-38 0 -0.97887021 0.20448263 0
104.40303 -152.27629 -4.6325669 1.8571305e-38 0 -0.99534565 0.096369676 0
104.48489 -152.10919 -4.7996507 1.86635e-38 0 -0.70707446 -0.70713907 0
104.39775 -152.28706 -4.9762535 1.8205408e-38 0 -0.70457119 0.70963341 0
104.38503 -152.31303 -5.1487379 1.7836991e-38 0 -0.98885399 0.14888878 0
104.45804 -152.164 -5.3159504 1.8666751e-38 0 -0.7465235 -0.66535902 0
104.36125 -152.36156 -5.4937978 1.9129876e-38 0 -0.66906321 0.74320543 0
104.3651 -152.35371 -5.6653728 1.931247e-38 0 -0.99895692 -0.045664191 0
104.37652 -152.3304 -5.8364296 1.9126637e-38 0 -0.99083835 -0.13505356 0
104.40469 -152.27289 -6.006278 1.8940803e-38 0 -0.94717664 -0.3207123 0
104.41589 -152.25002 -6.1772542 1.9034075e-38 0 -0.99116999 -0.13259718 0
104.41673 -152.24832 -6.3489714 1.8942237e-38 0 -0.99995142 -0.0098629817 0
104.58302 -151.90887 -6.5080819 1.8575244e-38 0 -0.42442238 -0.90546429 0
104.52252 -152.03236 -6.6842909 1.8483048e-38 0 -0.81891942 0.57390863 0
104.55959 -151.9567 -6.8529286 1.8299742e-38 0 -0.91236371 -0.4093807 0
104.58179 -151.91139 -7.0226636 1.8391218e-38 0 -0.96617728 -0.2578789 0
104.5629 -151.94995 -7.1957822 1.8114634e-38 0 -0.97608173 0.21740413 0
104.5359 -152.00505 -7.3696947 1.792917e-38 0 -0.95329934 0.30202714 0
104.47914 -152.12093 -7.5463634 1.7835901e-38 0 -0.83618587 0.54844618 0
104.40808 -152.26598 -7.7245727 1.7744428e-38 0 -0.77557057 0.63126081 0
104.40338 -152.27557 -7.8969564 1.7836988e-38 0 -0.99845362 0.055590708 0
104.40149 -152.27942 -8.0691137 1.8113941e-38 0 -0.99975061 0.022329904 0
104.47933 -152.12053 -8.2336111 1.8023543e-38 0 -0.71926004 -0.69474095 0
104.52029 -152.03691 -8.4014473 1.8208656e-38 0 -0.89506608 -0.44593352 0
104.51752 -152.04257 -8.5735369 1.8209373e-38 0 -0.99945939 0.032877937 0
104.5175 -152.04262 -8.745369 1.7749464e-38 0 -1 0.00026640174 0
104.49178 -152.09514 -8.9199076 1.7381031e-38 0 -0.95758557 0.28814894 0
104.48978 -152.0992 -9.0920448 1.728919e-38 0 -0.99972212 0.023572525 0
104.47766 -152.12395 -9.2653122 1.7565062e-38 0 -0.98995167 0.14140609 0
104.47718 -152.12492 -9.4373646 1.7656902e-38 0 -0.99998391 0.0056758691 0
104.45413 -152.17197 -9.6119814 1.7196275e-38 0 -0.96557319 0.26013136 0
104.42627 -152.22884 -9.7872648 1.7379952e-38 0 -0.95118964 0.30860695 0
104.43105 -152.21909 -9.9588814 1.7564712e-38 0 -0.99838996 -0.05672336 0
104.39247 -152.29784 -10.13565 1.8026777e-38 0 -0.91345274 0.4069449 0
104.41187 -152.25826 -10.305603 1.8213324e-38 0 -0.97393548 -0.22682479 0
104.43495 -152.21112 -10.47505 1.840058e-38 0 -0.9634214 -0.26799119 0
104.48131 -152.1165 -10.641529 1.8860471e-38 0 -0.86939073 -0.49412528 0
104.51093 -152.05603 -10.809971 1.9135971e-38 0 -0.94118696 -0.33788604 0
104.53392 -152.00909 -10.979171 1.8860822e-38 0 -0.96361178 -0.26730576 0
104.58189 -151.91118 -11.145044 1.886082e-38 0 -0.86115509 -0.50834244 0
104.62933 -151.81435 -11.310828 1.8953016e-38 0 -0.86349535 -0.50435674 0
104.66505 -151.74144 -11.478024 1.8769352e-38 0 -0.91664279 -0.39970744 0
104.70381 -151.66231 -11.644693 1.8861193e-38 0 -0.90335333 -0.4288972 0
104.76314 -151.54121 -11.808387 1.9415084e-38 0 -0.80393445 -0.59471804 0
104.81329 -151.43884 -11.973162 1.9415433e-38 0 -0.84941572 -0.52772433 0
104.88525 -151.29196 -12.134664 1.9140275e-38 0 -0.73980051 -0.67282629 0
104.94177 -151.17657 -12.298137 1.8956958e-38 0 -0.81698161 -0.57666373 0
105.00429 -151.04897 -12.460538 1.8957322e-38 0 -0.78629881 -0.61784643 0
105.08801 -150.87805 -12.61958 1.9417947e-38 0 -0.68122536 -0.73207378 0
105.14378 -150.76422 -12.782521 1.9418671e-38 0 -0.81977081 -0.57269186 0
105.22221 -150.60413 -12.941827 1.9325402e-38 0 -0.70535642 -0.70885271 0
105.26228 -150.52232 -13.106767 1.8865145e-38 0 -0.89587289 -0.44431052 0
105.30972 -150.42549 -13.270426 1.9325046e-38 0 -0.86063933 -0.509215 0
105.34689 -150.34964 -13.435553 1.9693114e-38 0 -0.90871364 -0.41742006 0
105.40711 -150.2267 -13.596876 1.8958056e-38 0 -0.79536784 -0.60612708 0
105.45575 -150.12741 -13.759871 1.9140645e-38 0 -0.85402405 -0.52023351 0
105.49529 -150.04671 -13.924197 1.9414716e-38 0 -0.89759356 -0.44082409 0
105.56 -149.91463 -14.08423 1.9415073e-38 0 -0.7712487 -0.63653398 0
105.61139 -149.80971 -14.246271 1.9232118e-38 0 -0.83940578 -0.54350525 0
105.65973 -149.71104 -14.408668 1.8956969e-38 0 -0.85463458 -0.51922995 0
105.70409 -149.62048 -14.571592 1.8956969e-38 0 -0.87404984 -0.48583624 0
105.7671 -149.49188 -14.731139 1.9140641e-38 0 -0.77856982 -0.62755805 0
105.83576 -149.35172 -14.889482 1.8774019e-38 0 -0.74877328 -0.6628263 0
105.88531 -149.25056 -15.050978 1.9049889e-38 0 -0.84748983 -0.53081161 0
105.94531 -149.1281 -15.210447 1.941867e-38 0 -0.793109 -0.60907978 0
105.99492 -149.02684 -15.371597 1.951014e-38 0 -0.84672403 -0.53203237 0
106.05544 -148.90329 -15.530591 1.9049869e-38 0 -0.78962016 -0.61359596 0
106.12706 -148.75711 -15.687333 1.9234258e-38 0 -0.73131919 -0.68203539 0
106.19576 -148.61687 -15.844378 1.9695239e-38 0 -0.74587995 -0.66608042 0
106.26389 -148.47781 -16.001308 1.895876e-38 0 -0.74845034 -0.66319084 0
106.33202 -148.33873 -16.158003 1.8220843e-38 0 -0.74788332 -0.66383028 0
106.41033 -148.17888 -16.31251 1.8495988e-38 0 -0.69498485 -0.71902442 0
106.47979 -148.03709 -16.468475 1.904808e-38 0 -0.73994583 -0.67266649 0
106.55049 -147.89278 -16.623966 1.8863689e-38 0 -0.73295039 -0.68028212 0
106.60345 -147.78465 -16.782742 1.8588183e-38 0 -0.82654738 -0.56286722 0
106.65305 -147.68344 -16.942028 1.8588909e-38 0 -0.84402752 -0.53629988 0
106.70302 -147.58144 -17.101082 1.8956617e-38 0 -0.84176505 -0.53984404 0
106.75331 -147.47876 -17.259916 1.8955185e-38 0 -0.83980846 -0.54288286 0
106.81064 -147.36174 -17.417156 1.8861896e-38 0 -0.80222368 -0.59702361 0
106.85667 -147.26778 -17.576555 1.8769703e-38 0 -0.86146271 -0.50782084 0
106.89018 -147.19939 -17.738451 1.8677872e-38 0 -0.92118049 -0.38913581 0
106.92057 -147.13734 -17.900915 1.8124698e-38 0 -0.93419832 -0.35675412 0
106.95237 -147.07243 -18.063004 1.7848112e-38 0 -0.9283275 -0.37176359 0
106.96146 -147.05389 -18.229916 1.7755194e-38 0 -0.99388796 -0.11039414 0
106.97278 -147.03078 -18.396349 1.7477168e-38 0 -0.99049121 -0.1375761 0
106.9799 -147.01625 -18.563707 1.7569011e-38 0 -0.99625421 -0.086472832 0
107.0739 -146.82436 -18.711809 1.6742116e-38 0 -0.61098158 -0.79164481 0
107.09845 -146.77426 -18.875139 1.6557724e-38 0 -0.95604324 -0.29322588 0
107.1124 -146.74577 -19.040802 1.637333e-38 0 -0.98553413 -0.16947715 0
107.11919 -146.73192 -19.20809 1.6281135e-38 0 -0.99658793 -0.08253862 0
107.13506 -146.69954 -19.37331 1.6005627e-38 0 -0.98133284 -0.19231735 0
107.05351 -146.86598 -19.561087 1.6004195e-38 0 -0.74833792 0.66331768 0
107.05739 -146.85808 -19.729273 1.5728688e-38 0 -0.99889755 -0.046944037 0
107.05831 -146.85619 -19.89819 1.5544297e-38 0 -0.9999373 -0.011200616 0
107.0873 -146.79701 -20.060476 1.5546818e-38 0 -0.93949521 -0.34256214 0
107.10258 -146.76582 -20.22599 1.582232e-38 0 -0.98270506 -0.18517801 0
107.25891 -146.4467 -20.357428 1.6189666e-38 0 -0.38083401 -0.9246434 0
107.24181 -146.48161 -20.530521 1.6095678e-38 0 -0.9802599 0.19771327 0
107.24478 -146.47554 -20.698807 1.581874e-38 0 -0.99934953 -0.036064025 0
107.23947 -146.48639 -20.869184 1.5451399e-38 0 -0.99797881 0.063547455 0
107.21194 -146.54259 -21.045181 1.5084772e-38 0 -0.95261389 0.30418232 0
107.18874 -146.58997 -21.220253 1.4809979e-38 0 -0.96527743 0.26122686 0
107.19551 -146.57613 -21.387867 1.4901449e-38 0 -0.9966085 -0.08228898 0
107.18686 -146.5938 -21.55945 1.4533392e-38 0 -0.99473941 0.10243851 0
107.1747 -146.61861 -21.732023 1.4166053e-38 0 -0.98982263 0.14230655 0
107.16969 -146.62883 -21.902853 1.398274e-38 0 -0.99821407 0.059738591 0
107.16879 -146.63066 -22.072676 1.379906e-38 0 -0.99994195 0.010781529 0
107.15263 -146.66365 -22.246582 1.3154764e-38 0 -0.98247904 0.18637328 0
107.13876 -146.69197 -22.42 1.2877101e-38 0 -0.98692638 0.1611716 0
107.10538 -146.7601 -22.598755 1.2692712e-38 0 -0.93442959 0.35614789 0
107.04543 -146.88248 -22.784872 1.2049872e-38 0 -0.83556139 0.54939711 0
106.94539 -147.08669 -22.982208 1.085349e-38 0 -0.69490337 0.71910316 0
106.9061 -147.16689 -23.163361 1.0209562e-38 0 -0.91439497 0.40482312 0
106.86118 -147.25859 -23.346292 1.0303561e-38 0 -0.89395881 0.44814917 0
106.82948 -147.32327 -23.525782 1.0212445e-38 0 -0.94077724 0.33902532 0
106.8331 -147.3159 -23.695555 9.6599855e-39 0 -0.99905908 -0.043370008 0
106.8532 -147.27486 -23.860716 9.0149692e-39 0 -0.97047913 -0.24118522 0
106.84845 -147.28456 -24.032925 8.6461839e-39 0 -0.99841589 0.05626436 0
106.81648 -147.34981 -24.213013 7.9111356e-39 0 -0.9401952 0.34063628 0
106.75089 -147.48372 -24.403002 7.9104307e-39 0 -0.81737065 0.57611215 0
106.64317 -147.70358 -24.605577 7.7253402e-39 0 -0.67760146 0.73542929 0
106.43509 -148.12834 -24.838129 7.0803393e-39 0 -0.48022807 0.87714368 0
106.10451 -148.80315 -25.10795 6.9874178e-39 0 -0.37127122 0.92852449 0
106.03656 -148.94183 -25.30097 7.0814099e-39 0 -0.81210685 0.58350873 0
106.03172 -148.95171 -25.475376 7.0817715e-39 0 -0.99840176 0.056515574 0
106.02975 -148.95573 -25.648996 7.1739727e-39 0 -0.99973094 0.023195663 0
105.98973 -149.03743 -25.834276 6.4367594e-39 0 -0.91500086 0.40345189 0
105.9549 -149.10852 -26.0182 6.3452854e-39 0 -0.93274826 0.36052838 0
105.89455 -149.23172 -26.210213 6.5303956e-39 0 -0.84165138 0.5400213 0
105.84792 -149.32689 -26.398279 6.3474462e-39 0 -0.89226127 0.45151946 0
105.79599 -149.43291 -26.588268 6.4396391e-39 0 -0.87324142 0.48728782 0
105.73475 -149.55791 -26.781481 6.3470791e-39 0 -0.8396095 0.54319048 0
105.70613 -149.61632 -26.964668 6.4385517e-39 0 -0.95273966 0.30378789 0
105.66831 -149.69353 -27.15098 6.6211451e-39 0 -0.92381531 0.38283846 0
105.61319 -149.80605 -27.343079 5.9786469e-39 0 -0.86287665 0.50541449 0
105.57532 -149.88335 -27.529894 6.532192e-39 0 -0.92402005 0.38234401 0
105.52915 -149.97758 -27.719646 6.7165917e-39 0 -0.89562851 0.44480285 0
105.49228 -150.05284 -27.906609 6.347812e-39 0 -0.92766774 0.37340659 0
105.44479 -150.1498 -28.097309 6.2559695e-39 0 -0.89140779 0.45320201 0
105.37785 -150.28644 -28.294748 6.4396391e-39 0 -0.82228225 0.56907988 0
105.31256 -150.41969 -28.491989 6.4399964e-39 0 -0.82861984 0.55981177 0
105.26041 -150.52615 -28.685165 6.1634067e-39 0 -0.87580663 0.48266214 0
105.18417 -150.68178 -28.886797 6.161613e-39 0 -0.79163021 0.61100048 0
105.13543 -150.78127 -29.079445 5.9779449e-39 0 -0.88851511 0.45884725 0
105.10097 -150.85161 -29.267462 5.887187e-39 0 -0.93659639 0.3504101 0
105.04664 -150.96251 -29.462568 5.7042376e-39 0 -0.86937058 0.49416068 0
105.02278 -151.01122 -29.647385 5.6127623e-39 0 -0.96698415 0.25483665 0
105.04366 -150.96861 -29.816711 5.7971535e-39 0 -0.96977639 -0.24399529 0
105.00694 -151.04356 -30.006311 5.7975095e-39 0 -0.92997235 0.36762932 0
104.98525 -151.08781 -30.190807 6.0730173e-39 0 -0.97242141 0.23323075 0
104.91063 -151.24014 -30.394356 6.3496014e-39 0 -0.80062795 0.5991618 0
104.51242 -152.05299 -30.714525 5.88791e-39 0 -0.36648035 0.93042576 0
104.0525 -152.99181 -31.059196 5.7957116e-39 0 -0.34464252 0.93873405 0
103.7666 -153.57539 -31.342728 5.8882618e-39 0 -0.43699664 0.89946312 0
103.42739 -154.26781 -31.647369 5.5191247e-39 0 -0.40271628 0.91532481 0
103.03859 -155.06145 -31.972206 5.7957116e-39 0 -0.37879843 0.92547923 0
102.95215 -155.2379 -32.185997 5.704232e-39 0 -0.77124017 0.63654423 0
102.68886 -155.77534 -32.466801 5.9804588e-39 0 -0.46308127 0.88631582 0
102.83105 -155.48509 -32.595379 5.8868338e-39 0 -0.40502548 -0.91430545 0
101.43283 -158.3392 -33.311718 5.610949e-39 0 -0.24343473 0.9699173 0
101.35428 -158.49956 -33.52726 5.7038705e-39 0 -0.80231988 0.59689426 0
101.29518 -158.62019 -33.735683 5.7964305e-39 0 -0.8654809 0.50094199 0
101.19081 -158.83324 -33.962132 5.6120364e-39 0 -0.72833544 0.68522078 0
101.0526 -159.11534 -34.202435 5.6105973e-39 0 -0.64845365 0.76125419 0
100.78658 -159.65837 -34.494034 5.6095141e-39 0 -0.47309157 0.88101321 0
100.73218 -159.76942 -34.702736 5.7939053e-39 0 -0.88279927 0.46975052 0
100.55915 -160.1226 -34.959267 6.5311214e-39 0 -0.58768106 0.80909264 0
100.35714 -160.53496 -35.22839 6.8077055e-39 0 -0.54654825 0.83742762 0
100.46079 -160.32338 -35.37463 6.8077083e-39 0 -0.56858665 -0.82262337 0
100.38456 -160.47899 -35.593796 7.3608793e-39 0 -0.81538057 0.57892543 0
100.31478 -160.62143 -35.810749 8.0987961e-39 0 -0.83593267 0.54883206 0
100.25895 -160.7354 -36.02235 8.2831845e-39 0 -0.88042116 0.47419259 0
100.2343 -160.78572 -36.221382 8.5601245e-39 0 -0.96949089 0.24512742 0
100.31519 -160.62059 -36.376667 9.2980469e-39 0 -0.68505543 -0.72849089 0
100.31393 -160.62317 -36.566078 9.0196636e-39 0 -0.99990731 0.013613223 0
100.3073 -160.6367 -36.757843 9.1118578e-39 0 -0.9975186 0.07040374 0
100.30555 -160.64027 -36.947674 9.2962462e-39 0 -0.99982315 0.01880583 0
100.30429 -160.64284 -37.137402 9.5731891e-39 0 -0.99990875 0.013510107 0
100.29077 -160.67044 -37.332462 9.5728331e-39 0 -0.99013531 0.14011459 0
100.27707 -160.69841 -37.527756 9.1118578e-39 0 -0.98989958 0.14177056 0
100.23294 -160.78848 -37.736336 8.2820985e-39 0 -0.91805595 0.39645082 0
100.21658 -160.82188 -37.933167 7.7285688e-39 0 -0.98590523 0.16730466 0
100.19485 -160.86623 -38.1325 7.3594177e-39 0 -0.97613955 0.21714407 0
100.17795 -160.90074 -38.329918 7.1757496e-39 0 -0.98505831 0.17222151 0
100.12704 -161.00465 -38.542488 6.7169308e-39 0 -0.89840245 0.4391731 0
100.11253 -161.03429 -38.739269 6.3495902e-39 0 -0.98885113 0.14890754 0
100.09894 -161.06203 -38.93581 6.0733691e-39 0 -0.99018562 0.13975835 0
100.13233 -160.99385 -39.111492 5.8900568e-39 0 -0.93226349 -0.36177996 0
87.911331 -185.93999 -44.956852 5.7960773e-39 0 -0.22813986 0.97362834 0
87.815636 -186.13533 -45.220673 5.888273e-39 0 -0.80367327 0.59507078 0
87.756393 -186.25626 -45.467594 5.6116861e-39 0 -0.89808464 0.43982267 0
87.710403 -186.35014 -45.708538 5.4272948e-39 0 -0.93176031 0.36307406 0
87.707558 -186.35594 -45.928917 5.3354495e-39 0 -0.99965405 0.026301676 0
87.677994 -186.41629 -46.162434 5.3358068e-39 0 -0.96819085 0.25021285 0
87.652199 -186.46895 -46.39436 5.6123909e-39 0 -0.97518039 0.22141173 0
87.576843 -186.62277 -46.650883 5.613114e-39 0 -0.85762566 0.51427442 0
87.509338 -186.76056 -46.903992 5.796785e-39 0 -0.87829292 0.47812301 0
87.402046 -186.97957 -47.177288 5.6098784e-39 0 -0.78034991 0.62534302 0
87.247589 -187.29486 -47.474743 5.2421693e-39 0 -0.68623167 0.72738302 0
87.089584 -187.61739 -47.77486 5.4272808e-39 0 -0.68121862 0.7320801 0
86.949013 -187.90433 -48.067085 5.6123937e-39 0 -0.71352756 0.70062715 0
86.799713 -188.20909 -48.364548 5.4279997e-39 0 -0.69848251 0.71562707 0
86.601166 -188.61436 -48.68795 4.9677446e-39 0 -0.62373453 0.78163624 0
86.488747 -188.84384 -48.968388 5.2450503e-39 0 -0.77391928 0.63328421 0
86.354927 -189.117 -49.260517 5.6138343e-39 0 -0.73042059 0.68299764 0
86.280159 -189.26962 -49.522903 5.6131154e-39 0 -0.86440945 0.50278842 0
86.228668 -189.37474 -49.773708 5.5209338e-39 0 -0.92227101 0.38654387 0
82.464958 -197.05742 -51.972416 8.4668499e-39 0 -0.27514416 0.96140301 0
83.292435 -195.36833 -51.767719 6.8094922e-39 0 0.12030753 -0.99273664 0
83.70871 -194.5186 -51.778282 5.9808105e-39 0 -0.012429905 -0.99992275 0
83.693481 -194.54968 -52.017044 5.8886149e-39 0 -0.9916327 0.12909128 0
83.679909 -194.57739 -52.255127 5.8886149e-39 0 -0.99329495 0.11560749 0
83.62336 -194.69283 -52.51651 6.1641228e-39 0 -0.91476691 0.40398198 0
